ncols        597
nrows        32
xllcorner    524130
yllcorner    1110680
cellsize     10.000000000000
NODATA_value -32767
2020 2014 2008 2005 2000 1980 1974 1970 1966 1960 1960 1960 1966 1968 1970 1980 1990 2000 2008 2013 2020 2025 2028 2028 2026 2025 2020 2014 2013 2012 2010 2012 2014 2020 2030 2040 2050 2060 2060 2070 2080 2090 2100 2107 2113 2120 2128 2133 2140 2140 2140 2140 2140 2130 2120 2120 2110 2100 2088 2080 2066 2060 2060 2060 2068 2072 2080 2086 2090 2093 2100 2100 2100 2110 2112 2114 2115 2116 2116 2120 2130 2140 2148 2153 2160 2180 2187 2192 2200 2207 2213 2220 2230 2240 2244 2245 2249 2252 2255 2257 2260 2265 2267 2272 2273 2273 2273 2273 2273 2273 2275 2280 2285 2289 2293 2296 2300 2305 2309 2314 2316 2320 2324 2327 2329 2331 2332 2333 2333 2335 2336 2336 2336 2340 2340 2340 2340 2340 2340 2340 2340 2340 2334 2332 2327 2325 2320 2310 2308 2306 2300 2307 2312 2320 2320 2328 2333 2340 2340 2340 2340 2340 2340 2340 2320 2320 2314 2313 2313 2313 2316 2320 2325 2325 2320 2314 2310 2307 2300 2297 2296 2297 2300 2310 2320 2327 2333 2340 2350 2360 2364 2368 2371 2372 2371 2368 2367 2360 2360 2353 2350 2347 2340 2340 2332 2330 2328 2320 2328 2332 2340 2340 2340 2332 2328 2326 2320 2320 2310 2310 2320 2328 2332 2340 2350 2360 2380 2400 2407 2413 2420 2427 2433 2440 2448 2453 2460 2468 2472 2480 2486 2490 2494 2500 2510 2520 2530 2540 2540 2540 2540 2540 2540 2540 2520 2510 2500 2498 2497 2494 2493 2491 2489 2487 2485 2483 2480 2470 2460 2450 2440 2440 2430 2420 2413 2410 2406 2400 2393 2388 2380 2374 2372 2369 2368 2369 2372 2376 2380 2386 2392 2395 2400 2407 2413 2420 2428 2433 2440 2443 2446 2448 2450 2450 2450 2448 2448 2445 2444 2440 2432 2428 2420 2420 2420 2414 2412 2408 2400 2395 2394 2392 2388 2386 2385 2380 2355 2345 2320 2312 2307 2300 2290 2280 2280 2270 2260 2260 2253 2252 2248 2247 2240 2240 2235 2235 2232 2226 2220 2220 2212 2207 2200 2190 2180 2170 2160 2160 2140 2120 2110 2100 2093 2090 2086 2080 2080 2084 2088 2092 2096 2100 2102 2103 2105 2106 2104 2105 2106 2106 2107 2108 2109 2109 2110 2111 2112 2113 2113 2114 2115 2116 2116 2117 2117 2118 2118 2119 2120 2120 2120 2120 2120 2120 2120 2120 2120 2116 2114 2110 2106 2104 2100 2090 2080 2075 2070 2065 2060 2053 2047 2040 2043 2045 2048 2048 2050 2050 2051 2050 2048 2046 2043 2040 2037 2034 2032 2028 2027 2024 2023 2020 2017 2015 2011 2008 2004 2000 1994 1990 1986 1980 1960 1957 1956 1955 1957 1960 1965 1967 1973 1975 1976 1980 1980 1980 1980 1978 1977 1974 1973 1971 1970 1968 1966 1963 1960 1957 1954 1952 1948 1947 1944 1943 1942 1940 1939 1938 1937 1937 1936 1935 1935 1934 1933 1934 1935 1936 1937 1938 1939 1940 1943 1946 1948 1951 1954 1957 1960 1964 1968 1972 1976 1980 1985 1990 1995 2000 2005 2009 2013 2016 2020 2028 2033 2040 2044 2047 2051 2055 2057 2060 2067 2073 2080 2085 2090 2095 2100 2107 2113 2120 2127 2133 2140 2147 2153 2160 2170 2180 2187 2193 2200 2210 2220 2227 2233 2240 2247 2253 2260 2270 2280 2300 2304 2307 2310 2314 2316 2320 2320 2320 2315 2313 2307 2305 2300 2292 2287 2285 2284 2287 2291 2295 2300 2300 2300 2300 2300 2300 2300 2297 2296 2294 2293 2292 2292
2020 2013 2007 2000 1992 1987 1980 1974 1968 1965 1965 1966 1970 1973 1980 1990 2000 2008 2012 2020 2026 2028 2031 2032 2031 2028 2027 2020 2020 2015 2015 2015 2020 2028 2032 2040 2060 2065 2067 2072 2080 2090 2100 2107 2113 2120 2130 2140 2143 2143 2143 2144 2144 2140 2130 2128 2120 2110 2100 2088 2070 2070 2068 2067 2072 2080 2086 2090 2094 2100 2106 2108 2110 2120 2120 2120 2120 2120 2120 2127 2132 2140 2147 2153 2160 2170 2180 2190 2200 2207 2213 2220 2230 2240 2244 2248 2251 2255 2257 2260 2265 2267 2273 2275 2280 2280 2280 2280 2280 2275 2276 2280 2285 2290 2295 2300 2305 2307 2313 2315 2320 2324 2325 2329 2332 2334 2335 2337 2337 2337 2340 2340 2340 2343 2343 2343 2343 2343 2343 2343 2343 2343 2340 2335 2333 2327 2325 2320 2313 2310 2306 2308 2314 2320 2328 2332 2340 2343 2344 2344 2344 2344 2344 2344 2340 2330 2320 2320 2315 2316 2320 2320 2326 2328 2327 2320 2314 2312 2308 2300 2298 2300 2307 2312 2320 2327 2333 2340 2350 2360 2365 2369 2374 2376 2375 2374 2372 2370 2370 2360 2354 2352 2348 2346 2340 2340 2332 2330 2332 2340 2346 2347 2347 2340 2333 2330 2326 2325 2320 2320 2320 2330 2340 2348 2352 2360 2380 2400 2407 2413 2420 2427 2433 2440 2450 2460 2468 2472 2480 2486 2490 2494 2500 2510 2520 2540 2540 2550 2560 2560 2560 2560 2550 2550 2540 2520 2510 2500 2498 2497 2495 2493 2492 2489 2487 2484 2480 2472 2468 2460 2460 2450 2440 2430 2420 2414 2410 2407 2400 2392 2388 2380 2375 2374 2371 2372 2375 2376 2380 2387 2393 2400 2405 2408 2414 2420 2430 2440 2443 2444 2447 2449 2451 2453 2452 2451 2450 2449 2446 2444 2440 2432 2428 2427 2427 2420 2420 2412 2410 2400 2400 2395 2394 2392 2388 2386 2380 2350 2320 2314 2312 2308 2300 2290 2288 2280 2270 2268 2260 2260 2253 2252 2248 2247 2240 2240 2234 2230 2226 2220 2214 2210 2206 2200 2190 2180 2170 2160 2150 2140 2120 2110 2100 2094 2090 2086 2085 2085 2089 2093 2096 2100 2102 2104 2105 2106 2108 2105 2105 2106 2107 2108 2108 2109 2110 2111 2112 2112 2113 2114 2115 2115 2116 2117 2117 2117 2118 2118 2119 2120 2120 2120 2120 2120 2120 2120 2120 2117 2113 2110 2107 2103 2100 2090 2080 2075 2070 2065 2060 2054 2048 2045 2045 2048 2050 2051 2052 2053 2053 2051 2049 2047 2044 2040 2037 2036 2033 2031 2028 2026 2024 2022 2020 2016 2014 2010 2006 2004 2000 1993 1987 1980 1970 1960 1958 1956 1958 1960 1966 1972 1975 1980 1980 1981 1981 1981 1981 1980 1978 1976 1975 1974 1972 1969 1966 1963 1960 1957 1956 1953 1951 1948 1946 1945 1943 1942 1940 1939 1938 1937 1937 1936 1935 1935 1934 1934 1935 1936 1937 1938 1939 1940 1943 1944 1947 1951 1954 1957 1960 1964 1968 1972 1976 1980 1985 1990 1995 2000 2006 2012 2015 2020 2020 2030 2040 2043 2045 2049 2053 2056 2060 2065 2068 2074 2080 2085 2090 2095 2100 2107 2113 2120 2127 2133 2140 2147 2153 2160 2170 2180 2187 2193 2200 2210 2220 2227 2233 2240 2247 2253 2260 2270 2280 2300 2305 2309 2313 2316 2320 2323 2323 2323 2320 2315 2312 2306 2300 2294 2290 2288 2287 2290 2293 2296 2300 2304 2305 2305 2305 2305 2305 2300 2297 2296 2295 2294 2293
2020 2013 2007 2000 1990 1980 1976 1973 1970 1968 1969 1972 1974 1980 1980 1990 2000 2010 2020 2026 2030 2034 2035 2036 2035 2034 2032 2028 2027 2020 2020 2020 2028 2032 2040 2050 2060 2065 2070 2074 2080 2090 2100 2107 2113 2120 2130 2140 2143 2146 2147 2147 2146 2145 2140 2132 2128 2120 2100 2093 2088 2080 2073 2072 2074 2080 2088 2093 2100 2106 2110 2113 2120 2128 2130 2130 2130 2130 2130 2132 2134 2140 2147 2152 2160 2170 2180 2190 2200 2207 2213 2220 2230 2240 2245 2249 2254 2256 2260 2265 2267 2273 2275 2280 2284 2284 2284 2284 2284 2280 2280 2285 2287 2293 2295 2300 2306 2312 2315 2320 2324 2325 2329 2331 2335 2337 2337 2340 2340 2340 2343 2344 2344 2345 2347 2347 2347 2347 2347 2347 2347 2345 2344 2340 2335 2333 2327 2325 2320 2314 2312 2311 2315 2320 2330 2340 2344 2345 2347 2348 2348 2348 2348 2346 2345 2340 2330 2328 2320 2320 2325 2326 2330 2334 2332 2330 2320 2320 2312 2308 2300 2305 2308 2314 2320 2327 2333 2340 2350 2360 2366 2372 2375 2380 2380 2380 2380 2380 2380 2380 2360 2360 2353 2350 2347 2347 2340 2340 2340 2340 2348 2353 2352 2350 2340 2334 2332 2327 2325 2325 2327 2332 2340 2350 2360 2373 2383 2400 2406 2412 2415 2428 2434 2440 2450 2460 2470 2480 2486 2490 2494 2500 2520 2520 2540 2548 2550 2560 2570 2570 2570 2570 2560 2560 2550 2540 2520 2500 2500 2498 2497 2496 2494 2492 2489 2486 2484 2480 2472 2468 2466 2460 2450 2440 2430 2420 2414 2412 2408 2400 2392 2388 2380 2376 2375 2374 2377 2380 2385 2388 2394 2400 2406 2412 2415 2420 2430 2440 2443 2446 2448 2452 2453 2455 2454 2454 2453 2452 2450 2447 2445 2440 2433 2433 2432 2430 2430 2420 2420 2420 2420 2400 2400 2395 2394 2390 2387 2380 2350 2320 2320 2312 2308 2300 2292 2288 2280 2272 2270 2270 2260 2260 2253 2252 2248 2247 2240 2234 2230 2226 2220 2213 2208 2200 2192 2188 2180 2160 2152 2148 2140 2120 2110 2100 2094 2092 2089 2089 2090 2093 2097 2100 2102 2103 2105 2106 2107 2104 2105 2106 2107 2107 2108 2109 2110 2110 2111 2112 2113 2113 2114 2115 2116 2116 2116 2116 2117 2117 2118 2119 2119 2120 2120 2120 2120 2118 2117 2116 2112 2109 2106 2103 2100 2090 2080 2075 2070 2065 2060 2055 2053 2049 2049 2051 2053 2054 2054 2055 2055 2054 2052 2049 2045 2043 2040 2037 2034 2032 2030 2027 2026 2023 2022 2020 2016 2012 2008 2004 2000 1993 1987 1980 1970 1960 1958 1957 1958 1960 1967 1973 1980 1981 1981 1982 1983 1983 1982 1981 1980 1977 1977 1976 1973 1971 1968 1965 1963 1960 1957 1954 1952 1950 1948 1946 1945 1943 1942 1940 1939 1938 1937 1936 1936 1935 1935 1934 1935 1936 1937 1938 1939 1939 1940 1944 1947 1950 1953 1957 1960 1964 1968 1972 1976 1980 1986 1992 1995 2000 2007 2013 2020 2025 2027 2032 2040 2043 2047 2050 2053 2057 2060 2065 2070 2075 2080 2085 2090 2095 2100 2107 2113 2120 2127 2133 2140 2147 2153 2160 2170 2180 2187 2193 2200 2210 2220 2227 2233 2240 2247 2253 2260 2270 2280 2300 2306 2312 2315 2320 2323 2324 2326 2324 2323 2320 2313 2307 2300 2295 2294 2291 2290 2293 2296 2300 2304 2307 2309 2310 2310 2310 2307 2305 2300 2297 2297 2295 2294
2020 2012 2007 2000 1990 1980 1976 1973 1971 1971 1974 1975 1980 1986 1988 1992 2000 2010 2020 2028 2033 2040 2040 2040 2040 2040 2040 2033 2032 2030 2030 2030 2032 2040 2048 2052 2060 2065 2070 2075 2080 2090 2100 2107 2113 2120 2130 2140 2144 2147 2150 2151 2151 2148 2147 2140 2130 2120 2110 2100 2092 2087 2080 2075 2075 2080 2090 2100 2106 2110 2114 2120 2128 2132 2140 2140 2140 2140 2140 2140 2140 2140 2140 2150 2160 2170 2180 2190 2200 2207 2212 2220 2230 2240 2245 2250 2255 2260 2265 2267 2273 2275 2280 2285 2286 2288 2288 2288 2286 2284 2280 2285 2290 2295 2300 2306 2310 2314 2320 2324 2325 2329 2331 2335 2336 2340 2340 2343 2343 2344 2345 2347 2348 2349 2350 2350 2350 2350 2350 2350 2350 2349 2346 2345 2340 2335 2331 2327 2324 2320 2315 2315 2316 2320 2330 2340 2344 2348 2351 2352 2352 2352 2352 2351 2348 2346 2340 2332 2327 2326 2327 2332 2334 2340 2340 2340 2330 2328 2320 2312 2308 2308 2313 2315 2320 2327 2333 2340 2350 2360 2368 2373 2380 2384 2385 2386 2387 2387 2387 2387 2380 2380 2360 2354 2353 2352 2348 2347 2347 2348 2352 2360 2360 2360 2350 2340 2335 2333 2330 2330 2332 2334 2340 2350 2360 2373 2387 2400 2405 2409 2412 2431 2435 2440 2450 2460 2480 2486 2490 2494 2500 2520 2530 2540 2548 2552 2560 2570 2580 2580 2580 2580 2580 2570 2560 2560 2540 2520 2510 2500 2500 2497 2497 2495 2492 2490 2487 2485 2480 2473 2470 2466 2460 2450 2440 2430 2420 2420 2412 2408 2400 2392 2387 2380 2377 2376 2377 2380 2385 2390 2395 2400 2408 2413 2420 2427 2432 2440 2444 2447 2450 2453 2456 2457 2457 2457 2456 2456 2453 2451 2447 2445 2440 2440 2440 2440 2440 2440 2430 2428 2426 2420 2410 2400 2400 2394 2392 2388 2380 2380 2350 2320 2312 2308 2300 2292 2290 2280 2280 2280 2270 2270 2260 2260 2253 2252 2248 2240 2234 2230 2226 2220 2212 2208 2200 2192 2188 2180 2160 2152 2148 2140 2120 2110 2100 2095 2094 2092 2091 2093 2096 2097 2100 2102 2104 2106 2107 2104 2105 2105 2106 2107 2108 2109 2109 2110 2111 2112 2112 2113 2114 2115 2115 2115 2116 2116 2116 2117 2117 2117 2118 2118 2118 2118 2118 2117 2115 2114 2112 2109 2106 2103 2100 2090 2080 2075 2071 2066 2064 2060 2055 2052 2052 2055 2056 2057 2057 2057 2057 2057 2055 2051 2047 2044 2040 2037 2035 2033 2030 2029 2026 2024 2022 2020 2016 2012 2008 2004 2000 1993 1987 1980 1972 1968 1960 1958 1960 1966 1970 1974 1980 1981 1983 1983 1984 1984 1983 1982 1981 1980 1980 1977 1975 1972 1970 1967 1963 1960 1957 1955 1953 1951 1949 1948 1946 1944 1942 1940 1940 1939 1938 1937 1936 1936 1935 1935 1936 1936 1937 1938 1939 1940 1943 1945 1949 1952 1955 1957 1960 1965 1969 1974 1976 1980 1987 1993 2000 2005 2008 2014 2020 2025 2030 2034 2040 2043 2047 2050 2053 2057 2060 2065 2070 2075 2080 2085 2090 2095 2100 2107 2113 2120 2127 2133 2140 2147 2153 2160 2170 2180 2187 2193 2200 2210 2220 2227 2233 2240 2247 2252 2260 2270 2280 2300 2307 2313 2320 2323 2325 2328 2328 2327 2324 2320 2314 2310 2306 2300 2296 2293 2292 2294 2297 2300 2305 2309 2313 2315 2315 2315 2313 2307 2305 2300 2298 2297 2295
2020 2010 2000 1993 1988 1980 1977 1974 1973 1975 1976 1980 1986 1990 1993 2000 2010 2020 2028 2032 2040 2045 2046 2047 2047 2047 2047 2040 2040 2040 2040 2040 2040 2040 2050 2060 2065 2067 2071 2075 2080 2090 2100 2107 2112 2120 2130 2140 2144 2147 2150 2154 2155 2154 2152 2150 2140 2130 2120 2100 2094 2092 2088 2080 2080 2087 2092 2100 2108 2113 2120 2127 2132 2140 2146 2148 2150 2150 2150 2150 2150 2150 2148 2152 2160 2170 2180 2188 2193 2200 2210 2220 2230 2240 2245 2250 2255 2260 2265 2270 2275 2280 2285 2287 2291 2292 2292 2292 2290 2287 2285 2287 2293 2295 2300 2308 2313 2320 2324 2325 2329 2331 2335 2336 2340 2343 2343 2345 2347 2347 2349 2351 2352 2353 2353 2353 2353 2353 2353 2353 2353 2352 2350 2346 2340 2336 2333 2330 2327 2324 2320 2320 2317 2320 2330 2340 2345 2349 2354 2356 2356 2356 2356 2355 2353 2348 2340 2334 2333 2332 2331 2335 2340 2344 2344 2344 2340 2332 2328 2320 2313 2314 2315 2320 2325 2328 2334 2340 2350 2360 2370 2380 2384 2387 2389 2392 2393 2393 2393 2392 2390 2388 2380 2360 2360 2360 2353 2353 2353 2353 2360 2365 2365 2365 2360 2350 2340 2335 2335 2335 2335 2340 2348 2352 2360 2373 2387 2400 2404 2407 2410 2433 2436 2440 2450 2460 2480 2487 2493 2500 2510 2520 2540 2547 2552 2560 2570 2580 2600 2600 2600 2600 2600 2580 2570 2570 2560 2540 2540 2520 2510 2500 2500 2496 2496 2493 2491 2487 2485 2480 2473 2468 2460 2452 2448 2440 2430 2427 2420 2410 2400 2394 2390 2386 2380 2377 2377 2380 2385 2390 2395 2400 2410 2420 2425 2428 2434 2440 2444 2448 2451 2455 2457 2460 2460 2460 2460 2460 2456 2455 2453 2448 2447 2447 2447 2447 2447 2446 2440 2433 2428 2425 2420 2410 2407 2400 2400 2392 2388 2386 2380 2350 2320 2312 2310 2300 2300 2290 2288 2287 2280 2280 2270 2268 2260 2260 2252 2248 2240 2234 2230 2226 2220 2212 2208 2200 2190 2180 2170 2160 2150 2140 2130 2120 2110 2100 2096 2094 2093 2093 2095 2097 2100 2102 2104 2106 2107 2104 2105 2106 2106 2107 2108 2108 2109 2110 2111 2111 2112 2113 2114 2114 2115 2115 2115 2115 2116 2116 2116 2116 2117 2117 2117 2116 2116 2115 2114 2112 2110 2108 2106 2103 2100 2090 2080 2076 2072 2068 2064 2060 2056 2053 2055 2057 2060 2060 2060 2060 2060 2060 2056 2052 2048 2044 2040 2037 2035 2033 2031 2029 2027 2025 2022 2020 2016 2012 2008 2004 2000 1994 1990 1986 1980 1972 1967 1960 1965 1968 1974 1980 1982 1982 1983 1985 1985 1985 1984 1984 1982 1982 1982 1980 1977 1975 1971 1967 1964 1960 1958 1955 1954 1952 1950 1949 1948 1945 1943 1942 1940 1939 1939 1938 1937 1936 1935 1935 1936 1937 1937 1938 1939 1940 1944 1947 1951 1955 1957 1960 1964 1966 1971 1975 1980 1985 1988 1994 2000 2005 2010 2015 2020 2025 2030 2035 2040 2044 2047 2051 2055 2057 2060 2065 2070 2075 2080 2085 2090 2095 2100 2108 2113 2120 2127 2133 2140 2147 2153 2160 2170 2180 2187 2193 2200 2210 2220 2226 2232 2235 2240 2250 2260 2270 2280 2300 2307 2313 2320 2324 2327 2330 2331 2329 2326 2325 2320 2313 2307 2300 2297 2296 2294 2295 2297 2300 2306 2312 2315 2320 2320 2320 2315 2313 2308 2307 2300 2298 2297
2020 2010 2000 1993 1987 1980 1977 1975 1976 1977 1980 1985 1988 1994 2000 2008 2012 2020 2030 2040 2046 2048 2052 2053 2053 2053 2052 2050 2050 2050 2050 2050 2050 2060 2060 2067 2068 2071 2073 2076 2080 2088 2093 2100 2110 2120 2128 2132 2140 2146 2152 2155 2160 2160 2160 2160 2150 2128 2120 2110 2100 2100 2092 2088 2086 2088 2094 2100 2110 2120 2126 2130 2134 2140 2148 2153 2160 2160 2160 2160 2160 2160 2153 2154 2160 2170 2180 2187 2193 2200 2210 2220 2230 2240 2245 2250 2255 2260 2265 2270 2275 2280 2286 2292 2295 2296 2296 2296 2293 2290 2288 2291 2295 2300 2307 2312 2320 2324 2325 2329 2331 2335 2336 2340 2344 2345 2347 2348 2350 2351 2353 2355 2356 2356 2357 2357 2357 2357 2357 2357 2356 2355 2354 2350 2347 2340 2336 2333 2330 2327 2324 2324 2320 2327 2332 2340 2346 2352 2355 2360 2360 2360 2360 2360 2360 2350 2340 2340 2340 2335 2335 2336 2340 2345 2348 2346 2345 2340 2332 2328 2320 2320 2316 2320 2325 2330 2335 2340 2350 2360 2370 2380 2385 2389 2393 2395 2400 2400 2400 2400 2400 2392 2388 2380 2370 2367 2360 2360 2360 2360 2366 2368 2370 2367 2365 2360 2360 2340 2340 2340 2340 2348 2352 2360 2370 2376 2388 2400 2403 2410 2418 2425 2433 2440 2460 2480 2486 2490 2494 2500 2510 2520 2540 2548 2553 2560 2580 2600 2603 2603 2604 2604 2604 2600 2580 2580 2570 2560 2550 2540 2520 2510 2510 2500 2500 2496 2495 2493 2487 2485 2480 2472 2468 2460 2450 2440 2433 2430 2426 2420 2410 2400 2393 2387 2380 2378 2378 2380 2385 2390 2395 2400 2410 2420 2425 2430 2435 2440 2445 2449 2454 2456 2460 2462 2462 2463 2463 2463 2460 2460 2455 2454 2453 2453 2453 2453 2453 2448 2440 2435 2432 2426 2420 2413 2410 2407 2406 2400 2393 2390 2386 2380 2350 2320 2320 2310 2308 2300 2293 2292 2288 2287 2280 2272 2270 2268 2260 2252 2248 2240 2234 2230 2226 2220 2210 2200 2192 2188 2180 2170 2160 2140 2130 2120 2110 2100 2097 2096 2094 2094 2095 2098 2100 2102 2104 2106 2108 2105 2105 2106 2106 2107 2108 2108 2109 2110 2111 2111 2112 2113 2113 2114 2114 2115 2115 2115 2115 2115 2115 2115 2116 2116 2115 2115 2114 2113 2112 2111 2109 2107 2105 2103 2100 2090 2080 2076 2072 2068 2064 2060 2057 2056 2057 2060 2062 2062 2062 2062 2062 2060 2056 2054 2049 2045 2040 2038 2037 2034 2032 2030 2027 2025 2023 2020 2016 2014 2010 2006 2004 2000 1993 1987 1980 1974 1968 1965 1967 1973 1975 1980 1982 1983 1984 1986 1986 1986 1986 1984 1984 1983 1982 1982 1980 1976 1972 1968 1964 1960 1958 1957 1955 1953 1952 1951 1948 1946 1945 1943 1942 1940 1939 1938 1937 1937 1936 1935 1936 1937 1937 1938 1939 1940 1944 1948 1952 1956 1960 1963 1965 1969 1972 1976 1980 1985 1990 1995 2000 2005 2010 2015 2020 2025 2030 2035 2040 2044 2048 2052 2056 2060 2064 2066 2071 2075 2080 2085 2090 2095 2100 2110 2120 2125 2128 2134 2140 2147 2153 2160 2170 2180 2187 2193 2200 2210 2220 2227 2233 2240 2247 2252 2260 2270 2280 2300 2307 2313 2320 2325 2329 2332 2333 2332 2330 2326 2320 2314 2310 2306 2300 2297 2295 2296 2297 2300 2308 2313 2320 2324 2324 2324 2320 2315 2314 2312 2308 2300 2297
2020 2010 2000 1993 1987 1980 1978 1977 1977 1980 1985 1987 1993 1995 2000 2010 2020 2030 2040 2046 2050 2054 2055 2060 2060 2060 2060 2060 2060 2060 2060 2060 2060 2067 2068 2072 2074 2075 2076 2080 2085 2088 2094 2100 2108 2113 2120 2130 2140 2147 2153 2160 2163 2163 2164 2164 2160 2143 2137 2120 2120 2110 2100 2093 2092 2091 2095 2100 2110 2120 2128 2133 2140 2147 2152 2160 2170 2170 2170 2170 2170 2168 2160 2160 2160 2160 2180 2187 2193 2200 2210 2220 2230 2240 2245 2250 2255 2260 2266 2272 2275 2280 2287 2293 2300 2300 2300 2300 2296 2294 2291 2293 2296 2300 2307 2313 2320 2324 2328 2331 2335 2336 2340 2344 2346 2349 2350 2352 2353 2355 2356 2357 2360 2360 2360 2360 2360 2360 2360 2360 2360 2360 2360 2354 2352 2348 2340 2336 2333 2330 2328 2325 2325 2328 2334 2340 2348 2353 2360 2363 2363 2363 2363 2363 2363 2360 2350 2348 2347 2340 2340 2340 2340 2346 2350 2351 2348 2347 2340 2332 2330 2330 2320 2327 2328 2331 2335 2340 2350 2360 2370 2380 2386 2392 2395 2400 2406 2407 2407 2407 2406 2400 2390 2380 2373 2370 2366 2365 2365 2366 2370 2374 2375 2373 2376 2373 2373 2360 2350 2350 2350 2352 2360 2367 2372 2380 2387 2392 2400 2408 2417 2424 2432 2440 2460 2480 2487 2493 2500 2507 2512 2520 2540 2550 2560 2570 2580 2600 2604 2607 2607 2608 2606 2605 2600 2590 2580 2580 2560 2550 2540 2520 2520 2520 2510 2500 2500 2495 2493 2488 2486 2480 2472 2468 2460 2450 2440 2434 2428 2425 2420 2400 2394 2390 2386 2380 2380 2385 2387 2393 2395 2400 2410 2420 2425 2430 2435 2440 2446 2452 2455 2460 2462 2463 2464 2465 2465 2464 2463 2464 2460 2460 2460 2460 2460 2460 2460 2452 2448 2440 2434 2430 2426 2420 2414 2413 2410 2406 2400 2394 2390 2386 2380 2350 2345 2320 2312 2308 2300 2300 2293 2292 2288 2280 2280 2272 2268 2260 2252 2247 2240 2234 2230 2226 2220 2210 2200 2192 2188 2180 2170 2160 2140 2120 2120 2110 2100 2097 2097 2095 2096 2098 2100 2102 2105 2107 2108 2105 2105 2106 2107 2107 2107 2108 2109 2110 2110 2111 2112 2112 2113 2113 2114 2114 2114 2114 2114 2114 2114 2114 2114 2114 2114 2114 2113 2112 2111 2109 2108 2106 2104 2102 2100 2090 2080 2076 2072 2068 2064 2060 2057 2057 2060 2063 2063 2064 2064 2064 2063 2062 2060 2055 2053 2047 2045 2040 2038 2035 2033 2031 2029 2026 2024 2023 2020 2016 2012 2008 2004 2000 1993 1987 1980 1975 1971 1968 1971 1975 1980 1982 1982 1984 1985 1986 1987 1987 1986 1986 1985 1984 1983 1982 1980 1976 1974 1970 1967 1964 1960 1958 1956 1955 1954 1952 1949 1948 1946 1944 1942 1940 1939 1938 1938 1937 1936 1936 1936 1937 1938 1938 1939 1940 1944 1948 1952 1956 1960 1963 1967 1970 1973 1976 1980 1985 1990 1995 2000 2005 2010 2015 2020 2025 2030 2035 2040 2044 2048 2052 2056 2060 2064 2068 2072 2076 2080 2085 2090 2095 2100 2110 2120 2125 2130 2135 2140 2147 2153 2160 2170 2180 2187 2193 2200 2210 2220 2227 2232 2240 2247 2253 2260 2270 2280 2300 2307 2313 2320 2326 2332 2335 2336 2335 2334 2330 2326 2320 2313 2307 2300 2297 2297 2298 2300 2307 2312 2320 2325 2326 2328 2326 2325 2320 2320 2320 2312 2310 2300
2020 2000 1995 1992 1986 1980 1978 1980 1980 1985 1987 1993 1995 2000 2008 2012 2020 2040 2046 2050 2054 2060 2060 2066 2067 2068 2070 2070 2070 2070 2070 2070 2070 2072 2073 2080 2080 2080 2080 2084 2086 2091 2095 2100 2107 2113 2120 2130 2140 2147 2152 2160 2164 2167 2167 2166 2165 2160 2143 2137 2132 2120 2110 2100 2095 2094 2096 2100 2110 2120 2130 2140 2152 2160 2173 2180 2180 2180 2180 2180 2180 2172 2170 2168 2160 2170 2180 2187 2193 2200 2210 2220 2230 2240 2245 2250 2255 2260 2267 2273 2280 2286 2290 2294 2300 2303 2303 2303 2300 2296 2293 2295 2297 2300 2307 2313 2320 2325 2329 2334 2336 2340 2345 2347 2350 2352 2353 2355 2357 2357 2360 2360 2363 2364 2364 2364 2364 2364 2364 2364 2364 2364 2363 2360 2360 2352 2347 2340 2336 2334 2331 2329 2328 2331 2335 2340 2350 2360 2363 2364 2365 2366 2366 2366 2364 2363 2360 2353 2352 2348 2347 2346 2346 2350 2354 2355 2354 2352 2350 2340 2340 2340 2340 2333 2334 2335 2336 2340 2350 2360 2370 2380 2387 2393 2400 2406 2410 2413 2413 2413 2410 2406 2400 2390 2380 2374 2372 2369 2369 2372 2374 2380 2380 2388 2393 2387 2383 2380 2360 2360 2360 2360 2360 2368 2376 2383 2392 2400 2407 2412 2420 2428 2433 2440 2460 2480 2487 2493 2500 2507 2513 2520 2540 2550 2560 2570 2580 2600 2604 2608 2611 2612 2611 2608 2607 2600 2600 2600 2580 2560 2550 2540 2530 2528 2520 2520 2510 2500 2495 2494 2490 2486 2480 2472 2468 2460 2440 2435 2432 2426 2420 2410 2400 2394 2388 2385 2384 2386 2391 2395 2400 2407 2412 2420 2425 2430 2435 2440 2448 2453 2460 2462 2463 2465 2466 2467 2467 2467 2467 2466 2465 2465 2465 2465 2465 2465 2465 2460 2452 2448 2440 2434 2430 2426 2420 2420 2414 2410 2406 2400 2394 2390 2386 2380 2355 2350 2320 2312 2308 2307 2300 2300 2292 2288 2286 2280 2270 2260 2254 2252 2248 2240 2233 2228 2220 2212 2208 2200 2192 2188 2180 2170 2160 2140 2120 2112 2107 2100 2098 2096 2096 2098 2100 2103 2105 2107 2109 2105 2106 2106 2107 2107 2108 2108 2109 2109 2110 2111 2111 2112 2113 2113 2113 2114 2114 2114 2114 2114 2114 2113 2113 2113 2113 2112 2112 2111 2109 2108 2106 2104 2102 2100 2093 2088 2080 2076 2073 2069 2065 2063 2060 2060 2063 2064 2066 2066 2067 2066 2065 2063 2062 2060 2055 2050 2045 2040 2038 2037 2034 2033 2030 2028 2026 2023 2020 2016 2012 2008 2004 2000 1993 1987 1980 1976 1973 1970 1973 1976 1980 1982 1984 1985 1986 1988 1988 1988 1988 1988 1987 1986 1984 1983 1982 1980 1976 1973 1969 1965 1960 1958 1958 1957 1955 1952 1951 1949 1946 1944 1942 1940 1939 1939 1938 1937 1937 1936 1936 1937 1938 1938 1939 1940 1944 1948 1952 1956 1960 1964 1967 1971 1975 1977 1980 1985 1990 1995 2000 2005 2010 2015 2020 2026 2032 2035 2040 2044 2048 2052 2056 2060 2064 2068 2072 2076 2080 2085 2090 2095 2100 2110 2120 2125 2130 2135 2140 2147 2153 2160 2170 2180 2187 2193 2200 2208 2213 2220 2230 2240 2247 2253 2260 2270 2280 2300 2307 2313 2320 2328 2333 2340 2340 2340 2340 2333 2328 2320 2313 2308 2300 2300 2298 2298 2300 2308 2313 2320 2326 2330 2332 2331 2328 2326 2325 2324 2320 2320 2310
2010 2000 1995 1991 1987 1984 1980 1983 1984 1987 1991 1995 2000 2007 2012 2020 2030 2040 2048 2053 2060 2066 2067 2070 2073 2073 2080 2080 2080 2080 2080 2080 2080 2080 2080 2085 2085 2085 2085 2086 2089 2092 2096 2100 2107 2113 2120 2128 2133 2140 2150 2160 2164 2168 2171 2171 2168 2167 2160 2147 2140 2138 2120 2110 2100 2096 2100 2107 2112 2120 2130 2140 2157 2167 2180 2187 2187 2187 2187 2187 2187 2180 2180 2172 2170 2172 2180 2187 2192 2200 2208 2213 2220 2240 2245 2250 2255 2260 2267 2273 2280 2287 2293 2300 2303 2305 2307 2304 2300 2297 2296 2297 2300 2306 2310 2314 2320 2326 2332 2335 2340 2345 2347 2351 2353 2356 2356 2357 2360 2360 2363 2364 2365 2367 2368 2368 2368 2368 2368 2368 2368 2367 2365 2364 2360 2354 2350 2346 2340 2336 2335 2332 2331 2334 2336 2340 2360 2363 2364 2367 2368 2369 2369 2368 2367 2365 2364 2360 2360 2353 2353 2352 2352 2354 2360 2360 2360 2360 2360 2360 2350 2350 2350 2340 2340 2340 2340 2348 2352 2360 2370 2380 2387 2393 2400 2408 2413 2420 2420 2420 2414 2410 2406 2400 2390 2380 2375 2374 2372 2375 2380 2386 2388 2392 2400 2400 2400 2400 2380 2380 2377 2372 2371 2372 2378 2385 2392 2400 2408 2416 2423 2432 2440 2450 2460 2480 2487 2493 2500 2507 2513 2520 2540 2550 2560 2570 2580 2600 2605 2609 2614 2616 2615 2614 2612 2610 2608 2606 2600 2580 2560 2550 2540 2532 2530 2528 2520 2520 2500 2500 2494 2490 2487 2480 2470 2460 2450 2440 2433 2427 2420 2410 2400 2395 2393 2389 2387 2389 2392 2396 2400 2407 2413 2420 2426 2432 2435 2440 2450 2460 2462 2463 2465 2466 2468 2469 2469 2469 2470 2470 2470 2470 2470 2470 2470 2470 2468 2467 2460 2452 2448 2440 2434 2428 2425 2424 2420 2414 2408 2406 2400 2394 2390 2387 2380 2380 2350 2320 2313 2312 2308 2306 2300 2293 2290 2286 2280 2270 2260 2260 2252 2247 2240 2232 2228 2220 2212 2208 2200 2192 2187 2180 2170 2160 2120 2113 2108 2100 2098 2097 2097 2098 2100 2103 2105 2107 2109 2105 2106 2107 2107 2108 2108 2108 2109 2109 2110 2110 2111 2112 2112 2113 2113 2113 2113 2113 2113 2113 2113 2113 2113 2113 2112 2111 2111 2110 2108 2107 2106 2104 2102 2100 2093 2087 2080 2077 2075 2071 2068 2065 2063 2063 2064 2066 2067 2069 2069 2068 2067 2065 2063 2060 2055 2051 2047 2044 2040 2037 2036 2034 2032 2029 2026 2023 2020 2016 2014 2009 2005 2000 1993 1988 1980 1977 1974 1973 1975 1977 1980 1982 1984 1986 1987 1988 1989 1990 1989 1989 1988 1987 1985 1984 1983 1982 1980 1975 1971 1966 1964 1960 1960 1958 1956 1954 1951 1949 1948 1946 1943 1942 1940 1939 1938 1938 1937 1937 1936 1937 1938 1938 1939 1940 1944 1948 1952 1956 1960 1964 1968 1972 1976 1980 1984 1986 1991 1995 2000 2005 2010 2015 2020 2027 2033 2040 2043 2045 2049 2053 2056 2060 2064 2068 2072 2076 2080 2086 2092 2095 2100 2110 2120 2125 2130 2135 2140 2148 2153 2160 2170 2180 2187 2193 2200 2206 2212 2215 2220 2240 2247 2253 2260 2270 2280 2300 2307 2313 2320 2330 2340 2342 2342 2342 2342 2340 2332 2328 2320 2312 2308 2306 2300 2300 2308 2312 2320 2326 2330 2334 2335 2335 2334 2332 2329 2327 2325 2324 2320
2010 2000 1996 1992 1989 1985 1983 1985 1987 1990 1993 1996 2000 2008 2013 2020 2040 2048 2052 2060 2066 2070 2073 2074 2080 2080 2087 2087 2087 2087 2087 2087 2087 2087 2087 2088 2090 2090 2090 2091 2091 2093 2096 2100 2107 2112 2120 2127 2133 2140 2150 2160 2165 2169 2174 2175 2174 2172 2170 2160 2170 2145 2120 2112 2108 2100 2100 2108 2113 2120 2140 2153 2163 2180 2188 2192 2193 2193 2193 2193 2192 2188 2186 2180 2180 2174 2175 2180 2190 2200 2207 2213 2220 2240 2245 2250 2255 2260 2267 2273 2280 2287 2293 2300 2304 2307 2309 2306 2305 2300 2297 2297 2300 2307 2313 2320 2326 2330 2334 2340 2345 2347 2353 2355 2356 2360 2360 2360 2363 2363 2365 2367 2369 2371 2372 2372 2372 2372 2372 2372 2372 2371 2369 2365 2364 2360 2354 2350 2346 2340 2337 2335 2333 2336 2340 2350 2360 2363 2366 2368 2371 2371 2371 2371 2370 2369 2366 2365 2365 2360 2360 2355 2355 2360 2364 2364 2365 2366 2367 2367 2360 2360 2360 2360 2360 2350 2340 2350 2360 2367 2372 2380 2387 2393 2400 2410 2420 2422 2422 2422 2420 2414 2408 2405 2400 2390 2380 2376 2376 2376 2380 2388 2393 2400 2410 2410 2410 2410 2400 2400 2387 2384 2380 2380 2383 2389 2393 2400 2408 2417 2424 2432 2440 2450 2460 2480 2487 2493 2500 2507 2513 2520 2540 2550 2560 2570 2580 2600 2605 2610 2615 2620 2620 2620 2620 2620 2613 2608 2600 2590 2580 2560 2550 2540 2540 2532 2530 2528 2520 2520 2500 2494 2492 2488 2480 2470 2460 2440 2433 2428 2420 2412 2408 2400 2395 2392 2390 2391 2393 2396 2400 2408 2413 2420 2427 2433 2440 2448 2452 2460 2462 2464 2466 2468 2469 2471 2471 2472 2472 2474 2475 2475 2475 2475 2475 2475 2474 2472 2468 2460 2450 2440 2435 2433 2429 2425 2420 2415 2414 2410 2407 2400 2394 2392 2390 2388 2380 2350 2320 2320 2313 2310 2306 2300 2294 2290 2286 2280 2270 2260 2254 2250 2246 2240 2232 2228 2220 2210 2200 2194 2190 2186 2180 2160 2140 2120 2112 2107 2100 2098 2098 2098 2100 2103 2106 2108 2110 2106 2106 2107 2108 2108 2108 2109 2109 2109 2110 2110 2111 2111 2112 2113 2113 2113 2113 2113 2113 2112 2112 2112 2112 2112 2111 2111 2110 2109 2108 2107 2105 2104 2102 2100 2094 2088 2085 2080 2076 2073 2070 2067 2066 2066 2067 2068 2070 2070 2071 2070 2068 2066 2063 2060 2056 2053 2050 2047 2044 2040 2037 2036 2033 2030 2027 2024 2023 2020 2015 2011 2007 2004 2000 1990 1980 1977 1975 1974 1977 1980 1982 1983 1985 1987 1988 1989 1990 1991 1991 1990 1989 1988 1987 1985 1984 1982 1980 1976 1972 1969 1965 1963 1960 1958 1956 1954 1952 1951 1949 1947 1945 1943 1940 1939 1939 1938 1937 1937 1937 1937 1938 1939 1939 1940 1944 1948 1952 1956 1960 1964 1968 1972 1976 1980 1984 1988 1992 1996 2000 2006 2012 2015 2020 2027 2033 2040 2044 2047 2051 2055 2057 2060 2064 2068 2072 2076 2080 2087 2093 2100 2107 2112 2120 2126 2132 2135 2140 2150 2160 2167 2172 2180 2187 2193 2200 2205 2210 2215 2220 2240 2247 2253 2260 2270 2280 2300 2307 2312 2320 2330 2340 2342 2344 2344 2343 2342 2340 2332 2328 2320 2313 2308 2306 2308 2312 2320 2326 2330 2334 2340 2340 2340 2340 2335 2333 2331 2329 2325 2320
2000 1997 1995 1992 1989 1987 1986 1988 1990 1993 1996 2000 2007 2012 2020 2030 2040 2050 2060 2066 2070 2074 2080 2080 2087 2088 2092 2093 2093 2093 2093 2093 2093 2093 2093 2094 2095 2095 2095 2095 2095 2094 2096 2097 2100 2110 2120 2127 2132 2140 2150 2160 2166 2172 2175 2180 2180 2180 2180 2180 2180 2155 2145 2120 2112 2108 2108 2112 2120 2130 2140 2153 2167 2180 2190 2200 2200 2200 2200 2200 2200 2193 2190 2186 2185 2180 2176 2180 2190 2200 2207 2212 2220 2240 2245 2248 2254 2260 2267 2273 2280 2287 2293 2300 2305 2309 2312 2311 2308 2306 2300 2300 2306 2310 2314 2320 2328 2333 2340 2345 2347 2353 2355 2360 2360 2363 2363 2363 2365 2367 2368 2370 2372 2375 2376 2376 2376 2376 2376 2376 2376 2375 2371 2369 2366 2364 2360 2354 2348 2345 2340 2337 2337 2337 2340 2350 2360 2364 2367 2370 2373 2374 2374 2374 2373 2372 2371 2370 2367 2365 2365 2360 2356 2360 2364 2368 2369 2372 2373 2372 2370 2370 2370 2368 2367 2360 2360 2353 2360 2367 2373 2380 2387 2393 2400 2410 2420 2423 2425 2423 2420 2415 2410 2406 2400 2392 2387 2380 2380 2380 2388 2392 2400 2412 2416 2420 2420 2416 2412 2411 2400 2390 2390 2388 2392 2392 2400 2409 2413 2420 2428 2433 2440 2450 2460 2480 2487 2493 2500 2507 2513 2520 2540 2550 2560 2570 2580 2600 2605 2608 2614 2620 2621 2621 2621 2621 2620 2612 2608 2600 2590 2580 2560 2560 2550 2540 2540 2532 2528 2527 2520 2500 2500 2490 2480 2472 2468 2460 2440 2432 2428 2420 2410 2400 2396 2395 2393 2392 2394 2397 2400 2410 2420 2425 2428 2434 2440 2450 2460 2462 2463 2465 2467 2469 2471 2472 2473 2474 2475 2476 2480 2480 2480 2480 2480 2480 2480 2480 2470 2460 2452 2448 2440 2435 2433 2428 2427 2420 2420 2414 2412 2408 2400 2400 2400 2390 2380 2355 2345 2338 2320 2314 2310 2306 2300 2293 2287 2280 2272 2268 2260 2254 2248 2245 2240 2232 2227 2220 2210 2200 2193 2188 2180 2170 2160 2140 2130 2110 2106 2100 2098 2098 2100 2103 2106 2108 2110 2106 2107 2107 2108 2108 2109 2109 2109 2110 2110 2110 2111 2111 2112 2112 2112 2112 2112 2112 2112 2112 2112 2112 2111 2111 2111 2110 2109 2108 2107 2106 2105 2103 2102 2100 2095 2090 2085 2080 2077 2074 2071 2069 2069 2069 2071 2071 2072 2073 2073 2071 2069 2067 2064 2063 2060 2056 2053 2050 2047 2044 2040 2037 2034 2032 2028 2026 2023 2020 2016 2013 2009 2005 2000 1990 1980 1977 1975 1975 1977 1980 1982 1985 1986 1988 1989 1991 1992 1992 1992 1991 1990 1989 1988 1986 1984 1982 1980 1976 1973 1970 1967 1964 1960 1958 1957 1955 1954 1952 1951 1949 1946 1944 1943 1940 1939 1938 1938 1937 1937 1937 1938 1939 1939 1940 1944 1948 1952 1956 1960 1964 1968 1972 1976 1980 1984 1988 1992 1996 2000 2007 2013 2020 2025 2028 2034 2040 2044 2048 2052 2056 2060 2063 2065 2069 2073 2076 2080 2087 2093 2100 2107 2113 2120 2127 2133 2140 2147 2152 2160 2167 2173 2180 2187 2193 2200 2206 2212 2215 2220 2240 2247 2253 2260 2270 2280 2290 2300 2310 2320 2330 2340 2342 2344 2345 2345 2343 2343 2340 2330 2320 2315 2313 2312 2313 2320 2320 2328 2333 2340 2343 2343 2343 2343 2340 2336 2335 2333 2327 2325
2000 1997 1994 1992 1990 1988 1988 1989 1991 1994 1997 2000 2007 2013 2020 2030 2040 2050 2060 2068 2073 2080 2086 2088 2092 2093 2100 2100 2100 2100 2100 2100 2100 2100 2100 2100 2100 2100 2100 2100 2097 2097 2097 2097 2100 2108 2113 2120 2130 2140 2150 2160 2168 2173 2180 2184 2184 2184 2184 2184 2184 2180 2155 2140 2120 2113 2113 2120 2120 2140 2152 2160 2168 2180 2200 2204 2204 2205 2205 2205 2205 2200 2194 2190 2185 2180 2177 2180 2188 2193 2200 2210 2220 2230 2240 2247 2253 2260 2267 2273 2280 2287 2293 2300 2306 2312 2315 2315 2314 2310 2306 2305 2308 2314 2320 2328 2332 2340 2345 2347 2353 2355 2360 2363 2363 2365 2367 2367 2368 2370 2371 2372 2375 2377 2380 2380 2380 2380 2380 2380 2380 2376 2375 2372 2369 2365 2360 2355 2353 2347 2345 2340 2340 2340 2347 2352 2360 2364 2368 2371 2375 2377 2377 2377 2376 2376 2375 2375 2373 2370 2368 2366 2360 2360 2365 2369 2374 2375 2380 2380 2380 2380 2380 2373 2372 2370 2370 2360 2367 2368 2374 2380 2387 2393 2400 2410 2420 2423 2425 2423 2420 2415 2413 2408 2400 2394 2392 2388 2386 2387 2392 2400 2412 2420 2428 2429 2429 2428 2424 2416 2413 2400 2400 2393 2400 2400 2400 2412 2420 2427 2432 2440 2447 2452 2460 2480 2487 2493 2500 2507 2512 2520 2530 2540 2560 2570 2580 2590 2600 2607 2613 2620 2621 2623 2623 2622 2622 2620 2612 2608 2600 2590 2580 2570 2560 2550 2548 2540 2533 2532 2528 2520 2510 2500 2490 2480 2472 2468 2460 2440 2430 2420 2412 2408 2400 2397 2396 2394 2395 2397 2400 2410 2420 2425 2430 2435 2440 2450 2460 2462 2464 2466 2468 2470 2472 2474 2475 2476 2477 2480 2484 2485 2486 2487 2487 2487 2486 2480 2472 2468 2460 2452 2448 2440 2435 2434 2432 2430 2428 2420 2420 2412 2410 2408 2406 2400 2390 2380 2360 2350 2338 2320 2313 2308 2300 2294 2290 2286 2280 2270 2260 2255 2252 2246 2240 2234 2230 2226 2220 2210 2200 2192 2187 2180 2170 2160 2120 2127 2108 2105 2100 2099 2100 2103 2105 2108 2110 2106 2107 2107 2108 2108 2109 2109 2110 2110 2110 2110 2110 2111 2111 2112 2112 2112 2112 2112 2112 2111 2111 2111 2111 2111 2110 2109 2109 2108 2107 2106 2104 2103 2102 2100 2095 2090 2085 2080 2077 2074 2072 2071 2072 2073 2074 2074 2074 2075 2075 2073 2072 2068 2067 2065 2063 2060 2056 2053 2049 2045 2040 2037 2036 2033 2030 2027 2024 2023 2020 2015 2012 2006 2000 1990 1980 1978 1978 1977 1978 1980 1983 1985 1987 1989 1991 1992 1993 1993 1993 1993 1992 1990 1989 1987 1985 1983 1980 1977 1975 1972 1969 1965 1963 1960 1958 1957 1955 1954 1953 1950 1948 1946 1943 1940 1939 1939 1938 1937 1937 1937 1938 1939 1939 1940 1944 1948 1952 1956 1960 1964 1968 1972 1976 1980 1984 1988 1992 1996 2000 2007 2013 2020 2025 2030 2035 2040 2044 2048 2052 2056 2060 2063 2067 2070 2073 2077 2080 2087 2093 2100 2107 2113 2120 2127 2133 2140 2148 2153 2160 2167 2173 2180 2187 2193 2200 2207 2213 2220 2230 2240 2247 2253 2260 2270 2280 2290 2300 2310 2320 2330 2340 2342 2344 2346 2346 2345 2343 2340 2332 2327 2320 2315 2315 2320 2326 2328 2332 2340 2344 2345 2347 2347 2345 2343 2340 2340 2335 2332 2326
1998 1997 1994 1992 1991 1989 1989 1990 1992 1994 1997 2000 2007 2013 2020 2030 2040 2050 2060 2070 2080 2086 2090 2093 2100 2100 2105 2106 2108 2110 2110 2110 2110 2110 2110 2108 2107 2107 2107 2107 2100 2100 2100 2100 2100 2107 2113 2120 2130 2140 2150 2160 2170 2180 2184 2186 2188 2188 2188 2188 2185 2180 2162 2155 2150 2120 2120 2127 2130 2140 2157 2167 2180 2200 2204 2205 2208 2209 2210 2210 2207 2200 2195 2193 2187 2185 2180 2180 2187 2193 2200 2210 2220 2230 2240 2247 2253 2260 2267 2273 2280 2287 2293 2300 2308 2313 2320 2320 2320 2314 2312 2309 2311 2315 2320 2330 2340 2345 2347 2353 2355 2360 2364 2365 2367 2368 2370 2370 2372 2373 2374 2375 2377 2380 2383 2383 2384 2384 2384 2384 2384 2380 2376 2375 2373 2368 2366 2360 2355 2353 2347 2345 2345 2346 2350 2354 2360 2365 2369 2374 2376 2380 2380 2380 2380 2380 2380 2380 2375 2375 2374 2370 2366 2365 2367 2373 2375 2380 2384 2384 2385 2386 2387 2380 2380 2380 2380 2380 2373 2374 2375 2380 2387 2393 2400 2410 2420 2423 2426 2425 2424 2420 2420 2412 2408 2400 2400 2393 2392 2393 2394 2400 2417 2427 2440 2440 2440 2440 2429 2428 2423 2420 2420 2400 2413 2413 2413 2420 2428 2431 2440 2445 2448 2454 2460 2480 2486 2490 2494 2500 2510 2520 2530 2540 2550 2560 2580 2590 2600 2607 2612 2620 2622 2623 2624 2624 2622 2622 2620 2612 2608 2600 2590 2580 2570 2560 2552 2548 2540 2540 2532 2528 2520 2510 2500 2490 2480 2472 2467 2460 2440 2430 2420 2412 2407 2400 2397 2396 2397 2398 2400 2410 2420 2426 2432 2435 2440 2450 2460 2462 2464 2466 2469 2471 2473 2475 2477 2478 2480 2484 2487 2489 2492 2493 2493 2493 2490 2486 2480 2472 2467 2460 2452 2448 2440 2440 2440 2440 2432 2430 2428 2420 2420 2413 2410 2406 2400 2390 2380 2362 2350 2338 2320 2312 2308 2300 2294 2290 2286 2280 2270 2260 2254 2250 2246 2240 2233 2227 2220 2210 2200 2193 2188 2180 2170 2160 2140 2133 2120 2110 2100 2099 2099 2100 2104 2107 2105 2106 2107 2108 2108 2109 2109 2109 2110 2110 2110 2110 2111 2111 2111 2111 2112 2112 2111 2111 2111 2111 2111 2111 2110 2110 2109 2109 2108 2107 2106 2105 2104 2103 2101 2100 2095 2090 2085 2080 2077 2075 2073 2073 2074 2076 2077 2077 2077 2077 2077 2076 2073 2072 2070 2068 2065 2064 2060 2055 2051 2046 2044 2040 2037 2034 2032 2028 2027 2024 2023 2020 2014 2008 2005 2000 1990 1980 1980 1978 1978 1980 1983 1986 1988 1990 1992 1993 1994 1995 1995 1994 1993 1992 1990 1988 1986 1984 1983 1980 1977 1975 1971 1968 1965 1963 1960 1958 1958 1956 1954 1952 1949 1946 1943 1940 1939 1939 1938 1937 1937 1937 1938 1939 1939 1940 1944 1948 1952 1956 1960 1965 1969 1974 1976 1980 1984 1988 1992 1996 2000 2007 2013 2020 2025 2030 2035 2040 2044 2048 2052 2056 2060 2063 2067 2070 2073 2077 2080 2087 2093 2100 2107 2113 2120 2127 2133 2140 2150 2160 2165 2168 2174 2180 2187 2193 2200 2207 2213 2220 2230 2240 2247 2253 2260 2270 2280 2290 2300 2310 2320 2330 2340 2343 2345 2347 2347 2346 2343 2340 2334 2330 2326 2320 2320 2326 2330 2333 2340 2345 2346 2349 2350 2350 2348 2345 2344 2343 2340 2333 2328
1998 1996 1994 1992 1991 1990 1990 1991 1993 1995 1997 2000 2008 2013 2020 2030 2040 2050 2060 2080 2086 2090 2094 2100 2104 2105 2107 2112 2113 2120 2120 2120 2120 2120 2120 2113 2113 2113 2113 2112 2108 2107 2107 2107 2107 2110 2114 2120 2130 2140 2150 2160 2170 2180 2185 2189 2192 2192 2192 2191 2188 2186 2180 2180 2180 2150 2150 2150 2133 2140 2160 2180 2190 2200 2204 2208 2211 2214 2215 2214 2212 2210 2200 2195 2193 2187 2185 2185 2188 2194 2200 2208 2213 2220 2240 2247 2253 2260 2267 2273 2280 2287 2293 2300 2310 2320 2323 2323 2323 2320 2315 2314 2314 2316 2320 2330 2340 2346 2352 2355 2360 2364 2366 2369 2370 2372 2373 2373 2375 2377 2377 2377 2380 2383 2385 2387 2387 2388 2388 2388 2386 2385 2380 2380 2375 2374 2370 2366 2360 2355 2353 2349 2348 2350 2354 2360 2365 2367 2373 2375 2380 2380 2384 2384 2384 2384 2384 2384 2380 2380 2380 2374 2372 2369 2371 2375 2380 2384 2385 2388 2389 2392 2392 2390 2390 2390 2388 2387 2380 2380 2380 2385 2388 2394 2400 2410 2420 2424 2427 2429 2426 2425 2425 2420 2412 2408 2406 2400 2395 2400 2400 2400 2420 2440 2444 2444 2445 2445 2440 2440 2440 2440 2440 2420 2423 2427 2427 2428 2440 2440 2440 2446 2452 2455 2460 2470 2480 2487 2492 2500 2508 2512 2520 2540 2548 2552 2560 2580 2590 2600 2610 2620 2622 2622 2624 2624 2624 2623 2622 2620 2612 2608 2600 2600 2580 2570 2560 2552 2548 2546 2540 2532 2528 2520 2500 2490 2480 2473 2468 2460 2450 2440 2420 2414 2410 2406 2400 2398 2398 2400 2407 2412 2420 2427 2433 2440 2450 2460 2462 2463 2465 2467 2469 2471 2474 2476 2478 2480 2484 2487 2490 2493 2495 2500 2500 2500 2493 2488 2480 2474 2472 2468 2460 2452 2448 2446 2445 2444 2440 2440 2432 2428 2426 2420 2414 2408 2405 2400 2390 2380 2362 2350 2338 2320 2312 2308 2300 2293 2288 2280 2272 2267 2260 2253 2248 2240 2234 2228 2225 2220 2210 2200 2192 2188 2180 2160 2140 2147 2122 2113 2108 2100 2100 2105 2106 2109 2105 2107 2108 2108 2109 2109 2110 2110 2110 2111 2111 2111 2111 2111 2111 2112 2112 2112 2111 2111 2111 2111 2110 2110 2110 2110 2109 2108 2108 2107 2106 2105 2104 2103 2101 2100 2095 2090 2085 2080 2078 2076 2074 2075 2076 2077 2080 2080 2080 2080 2080 2077 2076 2074 2073 2071 2068 2064 2060 2056 2052 2048 2044 2040 2037 2036 2033 2032 2028 2026 2023 2020 2015 2010 2005 2000 1992 1987 1985 1980 1980 1983 1984 1987 1989 1992 1994 1995 1996 1996 1996 1996 1995 1993 1991 1990 1988 1987 1984 1983 1980 1976 1973 1970 1967 1964 1963 1960 1960 1957 1956 1952 1950 1947 1944 1940 1939 1939 1938 1937 1937 1938 1938 1939 1939 1940 1945 1949 1954 1956 1960 1966 1972 1975 1980 1983 1985 1989 1993 1996 2000 2007 2013 2020 2025 2030 2035 2040 2044 2048 2052 2056 2060 2064 2067 2071 2075 2077 2080 2087 2093 2100 2107 2113 2120 2127 2133 2140 2150 2160 2165 2170 2175 2180 2187 2193 2200 2207 2213 2220 2230 2240 2247 2253 2260 2270 2280 2290 2300 2310 2320 2330 2340 2343 2346 2348 2349 2348 2345 2344 2340 2334 2328 2325 2326 2330 2334 2340 2345 2347 2351 2352 2353 2353 2351 2349 2347 2345 2343 2340 2330
1998 1996 1994 1993 1992 1991 1991 1992 1994 1996 1998 2000 2010 2020 2027 2032 2040 2050 2060 2080 2088 2093 2100 2104 2107 2109 2113 2115 2120 2127 2128 2130 2130 2130 2130 2120 2120 2120 2120 2120 2113 2113 2113 2113 2113 2114 2120 2127 2132 2140 2150 2160 2170 2180 2186 2192 2195 2196 2196 2195 2194 2190 2187 2187 2186 2180 2180 2167 2153 2140 2160 2180 2190 2200 2205 2209 2214 2216 2220 2220 2220 2220 2210 2200 2195 2193 2189 2188 2191 2195 2200 2207 2213 2220 2240 2247 2253 2260 2267 2273 2280 2287 2293 2300 2310 2320 2323 2326 2325 2324 2320 2316 2316 2320 2328 2332 2340 2348 2353 2360 2364 2367 2370 2372 2373 2375 2377 2377 2377 2380 2380 2380 2384 2385 2388 2390 2391 2392 2392 2392 2391 2388 2386 2385 2380 2380 2374 2370 2367 2360 2355 2354 2352 2354 2355 2360 2366 2372 2375 2380 2385 2385 2386 2388 2388 2388 2388 2386 2385 2385 2384 2380 2375 2374 2373 2376 2380 2384 2388 2391 2394 2395 2400 2400 2400 2400 2393 2392 2388 2387 2386 2387 2391 2395 2400 2410 2420 2425 2429 2432 2431 2430 2428 2426 2420 2413 2410 2406 2400 2412 2417 2420 2440 2444 2445 2448 2449 2448 2447 2447 2447 2447 2447 2440 2440 2440 2440 2440 2447 2447 2447 2448 2454 2460 2466 2470 2474 2480 2488 2493 2500 2510 2520 2530 2540 2550 2560 2580 2590 2600 2608 2613 2620 2622 2624 2625 2625 2625 2623 2622 2620 2612 2607 2605 2600 2580 2570 2560 2553 2550 2546 2540 2532 2528 2520 2500 2490 2480 2472 2468 2460 2450 2440 2420 2414 2408 2405 2400 2400 2405 2408 2414 2420 2427 2433 2440 2450 2460 2463 2465 2466 2468 2470 2472 2474 2476 2478 2480 2485 2489 2493 2496 2500 2507 2507 2507 2500 2492 2488 2480 2480 2472 2468 2460 2453 2452 2449 2447 2444 2444 2440 2433 2428 2420 2415 2412 2406 2400 2392 2388 2380 2362 2345 2335 2320 2312 2308 2300 2290 2280 2274 2270 2266 2260 2250 2240 2235 2232 2226 2220 2212 2207 2200 2190 2180 2170 2160 2150 2148 2120 2112 2107 2106 2107 2110 2105 2106 2108 2108 2109 2110 2110 2111 2111 2111 2111 2111 2112 2112 2112 2112 2112 2112 2112 2112 2111 2111 2111 2110 2110 2110 2109 2109 2108 2107 2107 2106 2105 2104 2102 2101 2100 2095 2090 2085 2080 2078 2076 2075 2077 2077 2080 2082 2082 2082 2082 2082 2080 2077 2077 2076 2074 2069 2065 2060 2056 2054 2050 2047 2044 2040 2037 2036 2033 2030 2027 2023 2020 2015 2010 2005 2000 1994 1990 1986 1984 1983 1984 1987 1988 1992 1993 1996 1997 1998 1998 1998 1998 1997 1994 1993 1992 1991 1988 1986 1983 1980 1977 1974 1972 1968 1967 1964 1963 1963 1960 1957 1955 1951 1948 1944 1940 1939 1939 1938 1938 1937 1938 1938 1939 1939 1940 1945 1950 1955 1960 1965 1968 1974 1980 1983 1984 1988 1990 1993 1997 2000 2007 2013 2020 2025 2030 2035 2040 2044 2048 2052 2056 2060 2064 2068 2072 2076 2080 2085 2088 2094 2100 2107 2113 2120 2127 2133 2140 2150 2160 2166 2172 2175 2180 2187 2193 2200 2207 2213 2220 2230 2240 2247 2253 2260 2270 2280 2290 2300 2310 2320 2330 2340 2343 2346 2349 2351 2350 2348 2345 2340 2335 2333 2329 2330 2334 2340 2345 2347 2353 2355 2356 2356 2356 2355 2352 2350 2347 2343 2340 2330
1997 1996 1994 1993 1993 1993 1993 1993 1994 1996 1998 2000 2010 2020 2027 2033 2040 2050 2060 2080 2090 2100 2104 2106 2110 2113 2115 2120 2128 2132 2133 2140 2140 2140 2140 2140 2140 2130 2130 2130 2120 2120 2120 2120 2120 2120 2127 2130 2134 2140 2150 2160 2170 2180 2188 2193 2200 2200 2200 2200 2200 2194 2193 2193 2190 2186 2180 2168 2156 2153 2163 2180 2190 2200 2206 2212 2215 2220 2225 2225 2225 2225 2220 2210 2200 2195 2194 2191 2193 2196 2200 2207 2213 2220 2240 2247 2252 2260 2267 2273 2280 2287 2293 2300 2310 2320 2324 2327 2329 2326 2325 2320 2320 2327 2332 2340 2348 2352 2360 2364 2367 2370 2373 2376 2376 2377 2380 2380 2380 2384 2384 2384 2386 2389 2391 2393 2395 2396 2396 2396 2395 2394 2392 2388 2387 2386 2380 2374 2372 2368 2360 2356 2356 2356 2360 2360 2368 2373 2380 2385 2387 2390 2391 2392 2392 2392 2392 2391 2390 2389 2387 2385 2380 2376 2376 2377 2380 2385 2387 2393 2395 2400 2406 2407 2407 2407 2400 2400 2393 2393 2392 2391 2393 2396 2400 2410 2420 2426 2432 2435 2435 2435 2434 2430 2427 2420 2414 2410 2407 2410 2430 2440 2444 2445 2449 2451 2453 2454 2453 2453 2453 2453 2452 2450 2450 2450 2450 2450 2452 2453 2453 2454 2455 2460 2465 2470 2475 2480 2486 2492 2495 2500 2510 2520 2540 2550 2560 2570 2580 2600 2607 2612 2620 2622 2624 2625 2627 2626 2625 2623 2620 2614 2612 2606 2600 2590 2580 2570 2560 2554 2550 2546 2540 2530 2520 2510 2500 2490 2480 2470 2460 2450 2440 2420 2415 2413 2408 2406 2400 2405 2410 2415 2420 2428 2433 2440 2450 2460 2463 2465 2467 2469 2471 2472 2474 2476 2478 2480 2485 2490 2495 2500 2507 2510 2513 2510 2508 2500 2492 2487 2485 2480 2472 2468 2460 2455 2453 2450 2448 2445 2443 2440 2432 2427 2420 2414 2410 2406 2400 2390 2380 2364 2353 2339 2332 2320 2312 2307 2300 2290 2280 2274 2268 2265 2260 2250 2240 2233 2227 2220 2213 2208 2200 2190 2180 2170 2160 2140 2145 2123 2118 2113 2111 2111 2111 2107 2108 2109 2109 2110 2111 2111 2111 2112 2112 2112 2112 2112 2112 2112 2112 2113 2113 2112 2112 2112 2111 2111 2111 2110 2110 2109 2109 2108 2107 2106 2105 2104 2103 2102 2101 2100 2095 2090 2085 2080 2078 2077 2077 2078 2080 2082 2083 2084 2084 2084 2083 2082 2080 2080 2080 2075 2073 2067 2065 2060 2056 2053 2050 2047 2044 2040 2037 2035 2031 2027 2024 2020 2015 2010 2005 2000 1995 1992 1989 1987 1986 1987 1988 1992 1993 1996 1997 2000 2000 2000 2000 2000 1998 1997 1995 1994 1992 1990 1987 1984 1980 1977 1976 1973 1971 1968 1967 1966 1964 1963 1960 1956 1954 1949 1945 1940 1939 1939 1938 1938 1938 1938 1938 1939 1939 1940 1945 1950 1955 1960 1965 1970 1975 1980 1983 1986 1988 1991 1994 1997 2000 2007 2013 2020 2025 2030 2035 2040 2044 2048 2052 2056 2060 2064 2068 2072 2076 2080 2085 2090 2095 2100 2107 2113 2120 2127 2133 2140 2150 2160 2167 2173 2180 2185 2188 2194 2200 2207 2213 2220 2230 2240 2247 2253 2260 2270 2280 2290 2300 2310 2320 2330 2340 2344 2347 2350 2352 2353 2351 2347 2345 2340 2335 2332 2334 2335 2340 2346 2352 2355 2360 2360 2360 2360 2357 2355 2351 2347 2344 2340 2330
1997 1996 1995 1995 1995 1995 1995 1994 1995 1996 1998 2000 2010 2020 2027 2033 2040 2050 2060 2080 2090 2100 2104 2108 2112 2116 2120 2128 2132 2140 2140 2144 2144 2145 2146 2147 2147 2140 2140 2140 2130 2130 2130 2130 2130 2130 2132 2134 2140 2147 2152 2160 2180 2188 2192 2200 2204 2205 2205 2206 2207 2200 2200 2200 2193 2188 2180 2169 2165 2160 2168 2180 2190 2200 2207 2213 2220 2225 2227 2230 2230 2227 2220 2212 2208 2200 2196 2195 2194 2197 2200 2207 2213 2220 2230 2240 2250 2260 2268 2273 2280 2287 2293 2300 2310 2320 2325 2329 2332 2331 2327 2325 2325 2328 2334 2340 2350 2360 2364 2367 2370 2373 2376 2380 2380 2380 2384 2384 2384 2386 2388 2388 2390 2392 2395 2396 2397 2400 2400 2400 2400 2400 2395 2394 2393 2388 2380 2380 2380 2372 2370 2360 2360 2360 2365 2367 2372 2380 2385 2387 2393 2395 2395 2396 2396 2396 2396 2395 2395 2393 2391 2387 2385 2380 2380 2380 2380 2380 2387 2393 2400 2406 2410 2413 2413 2412 2410 2410 2400 2400 2395 2395 2396 2400 2400 2410 2420 2428 2433 2440 2440 2440 2440 2434 2432 2428 2420 2414 2413 2414 2420 2440 2444 2448 2451 2455 2456 2460 2460 2460 2460 2460 2460 2460 2460 2460 2460 2460 2460 2460 2460 2460 2460 2460 2465 2470 2475 2480 2485 2490 2495 2500 2510 2520 2530 2540 2550 2560 2580 2590 2600 2610 2620 2622 2623 2625 2626 2627 2626 2624 2623 2620 2614 2610 2606 2600 2590 2580 2570 2560 2553 2548 2540 2532 2528 2520 2510 2500 2490 2470 2473 2460 2450 2440 2420 2415 2414 2410 2406 2407 2413 2415 2420 2430 2440 2450 2460 2463 2464 2466 2469 2471 2472 2474 2475 2477 2478 2480 2486 2492 2495 2500 2509 2516 2519 2516 2510 2500 2494 2492 2487 2485 2480 2472 2467 2460 2456 2454 2451 2447 2444 2440 2434 2428 2425 2420 2414 2408 2405 2400 2380 2367 2355 2345 2329 2320 2313 2308 2300 2290 2280 2275 2272 2266 2260 2250 2240 2234 2228 2225 2220 2210 2200 2192 2188 2180 2160 2140 2133 2131 2130 2109 2108 2107 2107 2108 2109 2110 2110 2111 2112 2112 2112 2112 2112 2113 2113 2112 2113 2113 2113 2113 2113 2113 2112 2112 2112 2111 2111 2111 2110 2110 2109 2108 2107 2106 2105 2104 2103 2102 2101 2100 2095 2091 2086 2084 2080 2078 2078 2080 2082 2083 2084 2085 2085 2085 2085 2083 2082 2082 2082 2080 2075 2071 2067 2064 2060 2056 2053 2050 2047 2044 2040 2036 2032 2028 2024 2020 2015 2010 2005 2000 1996 1993 1991 1989 1988 1989 1992 1993 1996 1997 2000 2003 2003 2003 2003 2003 2000 1997 1997 1997 1995 1992 1989 1985 1984 1980 1977 1974 1972 1971 1970 1968 1967 1965 1963 1960 1955 1953 1947 1945 1940 1939 1939 1939 1938 1938 1938 1939 1939 1940 1945 1950 1955 1960 1965 1970 1975 1980 1983 1986 1989 1991 1994 1997 2000 2007 2013 2020 2025 2030 2035 2040 2044 2048 2052 2056 2060 2064 2068 2072 2076 2080 2085 2090 2095 2100 2107 2113 2120 2128 2133 2140 2150 2160 2167 2173 2180 2185 2190 2195 2200 2208 2213 2220 2230 2240 2247 2253 2260 2270 2280 2290 2300 2310 2320 2330 2340 2344 2348 2351 2355 2356 2355 2352 2346 2340 2336 2335 2336 2340 2346 2350 2354 2360 2364 2364 2364 2364 2360 2356 2352 2348 2344 2340 2332
1997 1997 1997 1997 1997 1996 1996 1996 1996 1997 1998 2000 2010 2020 2027 2033 2040 2050 2060 2080 2090 2100 2104 2108 2112 2116 2120 2130 2140 2143 2144 2145 2148 2149 2152 2153 2152 2150 2150 2150 2140 2140 2140 2140 2140 2140 2140 2140 2146 2150 2154 2160 2180 2190 2200 2204 2207 2209 2210 2212 2212 2208 2206 2205 2200 2192 2188 2180 2171 2167 2171 2180 2190 2200 2207 2213 2220 2226 2232 2235 2234 2232 2228 2220 2212 2210 2200 2197 2196 2197 2200 2207 2212 2220 2230 2240 2250 2260 2270 2280 2285 2288 2294 2300 2310 2320 2326 2332 2335 2335 2333 2329 2329 2333 2335 2340 2350 2360 2365 2369 2373 2376 2380 2384 2384 2385 2386 2388 2388 2390 2392 2392 2394 2396 2396 2400 2400 2405 2405 2405 2405 2405 2400 2400 2400 2392 2388 2386 2385 2380 2380 2370 2368 2366 2367 2372 2374 2380 2386 2392 2395 2400 2400 2400 2400 2400 2400 2400 2400 2396 2395 2393 2387 2385 2384 2384 2380 2385 2388 2394 2400 2408 2413 2420 2420 2420 2420 2420 2410 2408 2400 2400 2400 2405 2407 2412 2420 2430 2440 2443 2443 2443 2443 2440 2440 2432 2428 2420 2420 2420 2430 2440 2445 2449 2454 2456 2460 2465 2466 2468 2470 2470 2470 2470 2470 2470 2468 2467 2467 2467 2467 2467 2467 2467 2468 2471 2475 2480 2485 2488 2494 2500 2510 2520 2530 2540 2550 2560 2570 2580 2600 2608 2612 2620 2622 2624 2626 2628 2627 2627 2625 2624 2620 2614 2610 2606 2600 2590 2580 2570 2560 2552 2548 2540 2530 2520 2512 2508 2500 2494 2483 2477 2460 2440 2430 2420 2420 2414 2412 2413 2415 2420 2427 2432 2440 2450 2460 2463 2466 2468 2470 2473 2474 2475 2477 2478 2480 2485 2488 2494 2500 2511 2515 2522 2525 2522 2516 2512 2500 2495 2492 2486 2480 2474 2468 2465 2460 2456 2452 2448 2444 2440 2435 2430 2425 2420 2415 2410 2405 2400 2380 2375 2373 2342 2335 2329 2320 2310 2300 2292 2287 2280 2273 2267 2260 2250 2240 2235 2232 2226 2220 2212 2207 2200 2192 2187 2180 2140 2130 2128 2129 2129 2110 2109 2109 2110 2111 2111 2112 2112 2113 2113 2113 2113 2113 2113 2113 2113 2113 2113 2114 2114 2113 2113 2113 2113 2112 2112 2111 2111 2111 2110 2109 2108 2107 2106 2105 2104 2103 2102 2100 2097 2095 2091 2088 2085 2083 2080 2080 2082 2083 2085 2085 2087 2087 2087 2086 2085 2084 2084 2083 2080 2076 2073 2070 2066 2064 2060 2056 2053 2049 2045 2040 2036 2032 2028 2024 2020 2015 2010 2005 2000 1997 1994 1992 1990 1990 1992 1993 1996 1997 2000 2003 2004 2006 2006 2006 2004 2003 2000 2000 2000 1997 1995 1991 1988 1984 1980 1977 1976 1974 1974 1973 1972 1969 1968 1965 1963 1960 1955 1953 1947 1945 1940 1939 1939 1938 1938 1938 1939 1939 1940 1945 1950 1955 1960 1965 1970 1975 1980 1983 1986 1989 1991 1994 1997 2000 2007 2013 2020 2025 2030 2035 2040 2044 2048 2052 2056 2060 2064 2068 2072 2076 2080 2085 2090 2095 2100 2107 2113 2120 2130 2140 2140 2150 2160 2167 2173 2180 2185 2190 2195 2200 2210 2220 2228 2232 2240 2247 2253 2260 2270 2280 2290 2300 2310 2320 2330 2340 2345 2349 2353 2356 2360 2360 2354 2348 2345 2340 2337 2340 2340 2347 2353 2360 2365 2366 2368 2368 2365 2360 2356 2352 2348 2344 2340 2333
1999 1998 1998 1998 1998 1998 1998 1998 1996 1997 1998 2000 2010 2020 2027 2033 2040 2050 2060 2080 2090 2100 2104 2108 2112 2116 2120 2130 2140 2143 2147 2149 2151 2154 2155 2160 2160 2160 2160 2160 2160 2160 2150 2150 2150 2150 2148 2147 2148 2154 2160 2170 2180 2200 2204 2207 2210 2213 2215 2215 2220 2213 2212 2208 2206 2200 2192 2188 2180 2172 2173 2180 2190 2200 2207 2212 2220 2228 2233 2240 2240 2240 2232 2228 2220 2220 2210 2200 2197 2197 2198 2200 2210 2220 2230 2240 2260 2270 2280 2285 2287 2293 2295 2300 2310 2320 2328 2333 2340 2340 2335 2334 2332 2335 2340 2350 2360 2365 2367 2373 2375 2380 2384 2386 2388 2389 2391 2392 2392 2394 2396 2396 2396 2400 2400 2406 2407 2408 2410 2410 2410 2408 2406 2405 2405 2400 2393 2392 2387 2385 2384 2380 2373 2370 2371 2375 2380 2386 2390 2394 2400 2404 2405 2405 2405 2405 2405 2405 2405 2400 2400 2395 2393 2389 2388 2385 2384 2386 2391 2395 2400 2410 2420 2423 2423 2423 2424 2424 2420 2412 2410 2408 2406 2407 2409 2413 2415 2420 2440 2443 2446 2447 2445 2444 2444 2440 2432 2430 2430 2428 2432 2440 2446 2452 2455 2460 2465 2467 2472 2473 2480 2480 2480 2480 2480 2480 2473 2473 2473 2473 2473 2473 2473 2473 2474 2473 2475 2477 2480 2487 2493 2500 2510 2520 2528 2533 2540 2560 2570 2580 2590 2600 2608 2613 2620 2623 2626 2628 2630 2629 2629 2626 2625 2620 2614 2610 2606 2600 2590 2580 2570 2560 2552 2548 2540 2530 2520 2512 2510 2500 2500 2480 2460 2450 2440 2430 2428 2420 2415 2415 2420 2426 2430 2434 2440 2450 2460 2463 2466 2469 2472 2474 2476 2477 2478 2480 2480 2485 2490 2495 2500 2512 2524 2529 2532 2529 2528 2520 2512 2500 2493 2487 2480 2475 2470 2465 2460 2456 2453 2449 2445 2440 2435 2430 2425 2420 2415 2410 2405 2400 2390 2380 2372 2367 2337 2320 2313 2308 2300 2293 2287 2280 2273 2268 2260 2252 2248 2240 2233 2227 2220 2213 2207 2200 2193 2187 2180 2140 2120 2125 2127 2128 2111 2110 2111 2112 2112 2113 2113 2114 2114 2114 2114 2114 2114 2114 2114 2113 2114 2114 2114 2114 2114 2114 2113 2113 2113 2112 2112 2112 2111 2111 2110 2109 2108 2107 2106 2104 2103 2102 2100 2097 2094 2092 2088 2087 2084 2083 2082 2083 2085 2086 2087 2088 2089 2088 2088 2087 2087 2086 2084 2083 2080 2076 2072 2069 2065 2064 2060 2055 2050 2045 2040 2036 2032 2028 2024 2020 2015 2010 2005 2000 1997 1995 1993 1991 1993 1994 1996 1997 2000 2004 2005 2007 2008 2009 2008 2007 2005 2003 2003 2003 2000 1996 1994 1990 1987 1984 1980 1977 1977 1977 1976 1974 1972 1970 1968 1965 1963 1960 1955 1950 1945 1940 1939 1939 1938 1938 1939 1939 1939 1940 1945 1950 1955 1960 1966 1972 1975 1980 1983 1986 1989 1991 1994 1997 2000 2007 2013 2020 2025 2030 2035 2040 2044 2048 2052 2056 2060 2064 2068 2072 2076 2080 2085 2090 2095 2100 2108 2113 2120 2140 2145 2147 2152 2160 2167 2173 2180 2186 2192 2195 2200 2210 2220 2230 2240 2245 2248 2254 2260 2270 2280 2290 2300 2310 2320 2330 2340 2345 2348 2354 2360 2362 2360 2355 2353 2347 2345 2340 2345 2346 2350 2354 2360 2366 2370 2372 2370 2366 2360 2356 2352 2348 2344 2340 2333
2000 2000 2000 2000 2000 2000 2000 1998 1998 1997 1999 2000 2010 2020 2027 2033 2040 2050 2060 2080 2090 2100 2104 2106 2111 2115 2120 2130 2140 2144 2147 2151 2155 2156 2160 2163 2164 2164 2165 2166 2167 2167 2160 2160 2160 2160 2153 2153 2154 2155 2160 2170 2180 2200 2205 2209 2213 2216 2220 2220 2225 2220 2215 2214 2210 2206 2200 2192 2188 2180 2180 2180 2188 2193 2200 2210 2220 2230 2240 2243 2243 2243 2240 2232 2228 2226 2220 2210 2200 2200 2200 2207 2212 2220 2230 2240 2260 2270 2280 2286 2292 2295 2300 2310 2320 2328 2332 2340 2343 2343 2340 2336 2335 2336 2340 2350 2360 2365 2370 2375 2380 2384 2387 2390 2392 2394 2395 2396 2396 2396 2400 2400 2400 2406 2407 2410 2413 2414 2415 2415 2415 2414 2412 2410 2408 2406 2400 2395 2393 2389 2385 2380 2375 2372 2373 2376 2380 2388 2393 2400 2404 2407 2409 2410 2410 2410 2410 2410 2408 2407 2406 2400 2395 2394 2391 2389 2387 2389 2392 2396 2400 2410 2420 2423 2426 2427 2427 2426 2425 2420 2420 2413 2412 2411 2412 2415 2420 2430 2440 2444 2447 2450 2449 2448 2446 2445 2440 2440 2440 2433 2440 2445 2448 2454 2460 2465 2467 2473 2475 2480 2485 2486 2488 2490 2490 2490 2480 2480 2480 2480 2480 2480 2480 2480 2480 2476 2476 2477 2480 2487 2493 2500 2510 2520 2527 2532 2540 2550 2560 2570 2580 2600 2607 2613 2620 2623 2625 2628 2630 2632 2632 2631 2628 2626 2620 2614 2608 2605 2600 2590 2580 2570 2560 2552 2548 2540 2530 2520 2520 2510 2510 2500 2480 2460 2450 2440 2432 2427 2420 2416 2420 2428 2433 2440 2450 2460 2464 2465 2468 2471 2473 2476 2477 2480 2480 2485 2485 2487 2491 2495 2500 2517 2527 2540 2540 2540 2540 2527 2517 2500 2493 2487 2480 2475 2471 2466 2464 2460 2454 2448 2445 2440 2434 2428 2425 2420 2414 2408 2405 2400 2380 2372 2368 2360 2340 2320 2313 2307 2300 2294 2288 2285 2280 2272 2268 2260 2250 2240 2233 2227 2220 2213 2207 2200 2193 2187 2180 2140 2120 2124 2126 2128 2128 2112 2113 2114 2114 2115 2115 2115 2115 2115 2115 2115 2115 2115 2114 2114 2114 2114 2115 2115 2114 2114 2114 2114 2113 2113 2113 2112 2112 2111 2110 2109 2108 2107 2106 2105 2103 2102 2100 2097 2094 2092 2090 2087 2086 2084 2084 2085 2086 2088 2089 2090 2091 2090 2090 2089 2089 2087 2086 2083 2080 2076 2075 2071 2068 2064 2060 2055 2052 2046 2040 2036 2032 2028 2024 2020 2015 2010 2005 2000 1998 1995 1994 1994 1994 1996 1997 2000 2005 2006 2009 2010 2011 2011 2011 2009 2008 2006 2006 2004 2003 2000 1996 1993 1990 1987 1984 1980 1980 1980 1977 1977 1975 1972 1970 1967 1964 1960 1955 1952 1946 1940 1939 1939 1939 1939 1939 1939 1940 1945 1947 1953 1955 1960 1967 1973 1980 1982 1984 1986 1989 1992 1995 1997 2000 2007 2013 2020 2025 2030 2035 2040 2044 2048 2052 2056 2060 2064 2068 2072 2076 2080 2085 2090 2095 2100 2110 2120 2130 2140 2145 2150 2154 2160 2167 2173 2180 2187 2193 2200 2207 2212 2220 2230 2240 2245 2250 2255 2260 2270 2280 2290 2300 2310 2320 2328 2332 2340 2347 2353 2360 2362 2363 2360 2355 2353 2347 2345 2347 2352 2354 2360 2366 2370 2374 2375 2373 2368 2360 2356 2354 2349 2345 2340 2333
2005 2005 2005 2005 2005 2005 2005 2000 1999 1999 1999 2000 2010 2020 2027 2033 2040 2050 2060 2080 2088 2093 2100 2105 2110 2115 2120 2130 2140 2144 2148 2152 2156 2160 2163 2165 2167 2168 2169 2172 2173 2172 2170 2170 2170 2168 2160 2160 2160 2160 2168 2172 2180 2200 2205 2210 2215 2220 2224 2225 2227 2227 2220 2220 2214 2210 2206 2200 2192 2188 2186 2185 2188 2194 2200 2210 2220 2240 2243 2245 2246 2245 2244 2240 2233 2230 2226 2220 2210 2210 2208 2210 2214 2220 2230 2240 2260 2270 2280 2287 2293 2300 2308 2312 2320 2330 2340 2344 2345 2345 2344 2340 2337 2337 2340 2350 2360 2365 2370 2375 2380 2385 2389 2393 2396 2396 2400 2400 2400 2400 2405 2406 2407 2410 2413 2414 2420 2420 2420 2420 2420 2420 2415 2415 2414 2410 2406 2400 2395 2392 2386 2380 2376 2373 2375 2377 2380 2390 2400 2404 2407 2410 2413 2415 2415 2415 2415 2415 2414 2413 2410 2407 2400 2396 2395 2392 2390 2391 2393 2396 2400 2410 2420 2424 2427 2430 2431 2431 2428 2427 2427 2420 2415 2415 2416 2416 2420 2430 2440 2445 2447 2451 2453 2452 2451 2448 2447 2447 2447 2440 2447 2448 2451 2455 2460 2466 2472 2475 2480 2485 2487 2492 2493 2500 2500 2500 2500 2500 2490 2490 2490 2490 2490 2490 2488 2480 2480 2480 2480 2487 2493 2500 2508 2513 2520 2530 2540 2550 2560 2570 2580 2600 2606 2612 2615 2620 2624 2626 2630 2634 2636 2635 2633 2628 2620 2615 2613 2607 2605 2600 2580 2572 2568 2560 2552 2548 2540 2530 2528 2520 2520 2510 2500 2480 2460 2440 2434 2430 2426 2420 2427 2432 2440 2450 2460 2465 2466 2469 2470 2472 2475 2477 2480 2484 2485 2487 2490 2493 2495 2496 2500 2520 2540 2542 2542 2542 2542 2540 2520 2500 2493 2487 2480 2475 2470 2465 2460 2454 2450 2446 2440 2434 2430 2426 2420 2415 2412 2406 2400 2390 2380 2370 2360 2350 2340 2320 2313 2307 2300 2295 2291 2286 2284 2280 2270 2260 2250 2240 2233 2227 2220 2213 2207 2200 2192 2187 2180 2160 2120 2123 2125 2127 2128 2127 2115 2115 2116 2116 2116 2117 2117 2116 2116 2116 2115 2115 2115 2115 2115 2115 2115 2115 2115 2115 2115 2114 2114 2114 2113 2113 2113 2112 2111 2110 2109 2108 2107 2105 2104 2102 2100 2097 2095 2093 2090 2089 2087 2086 2087 2088 2088 2089 2091 2092 2092 2092 2092 2091 2090 2089 2088 2085 2084 2080 2076 2074 2070 2066 2064 2060 2053 2047 2040 2036 2032 2028 2024 2020 2015 2010 2005 2000 1998 1996 1995 1996 1997 1998 2000 2005 2007 2011 2012 2013 2014 2014 2014 2012 2011 2009 2008 2007 2004 2003 2000 1996 1993 1990 1987 1984 1984 1983 1980 1980 1977 1975 1972 1969 1965 1964 1960 1954 1950 1946 1940 1939 1939 1939 1939 1940 1944 1946 1951 1955 1960 1960 1967 1973 1980 1982 1985 1987 1990 1992 1995 1997 2000 2007 2013 2020 2025 2030 2035 2040 2044 2048 2052 2056 2060 2064 2068 2072 2076 2080 2085 2090 2095 2100 2110 2120 2130 2140 2145 2150 2155 2160 2167 2173 2180 2187 2193 2200 2207 2213 2220 2230 2240 2245 2250 2255 2260 2270 2280 2288 2293 2300 2310 2320 2330 2340 2347 2353 2360 2363 2364 2363 2360 2355 2353 2349 2351 2355 2360 2366 2370 2374 2380 2380 2380 2372 2367 2360 2355 2350 2345 2340 2334
2007 2010 2010 2010 2010 2010 2007 2005 2000 2000 2000 2007 2012 2020 2027 2033 2040 2050 2060 2080 2087 2092 2100 2105 2108 2114 2120 2130 2140 2144 2148 2152 2156 2160 2163 2166 2169 2171 2174 2175 2180 2180 2180 2180 2180 2172 2170 2170 2168 2167 2172 2180 2190 2200 2205 2210 2215 2220 2225 2229 2233 2232 2228 2227 2220 2214 2210 2207 2200 2193 2192 2190 2191 2195 2200 2210 2220 2240 2244 2247 2249 2249 2246 2245 2240 2234 2230 2226 2220 2220 2213 2214 2220 2230 2240 2250 2260 2270 2280 2288 2293 2300 2310 2320 2327 2332 2340 2345 2348 2349 2346 2345 2340 2340 2347 2352 2360 2366 2372 2375 2380 2386 2392 2395 2400 2400 2404 2405 2406 2407 2408 2412 2413 2414 2420 2420 2424 2424 2424 2424 2424 2424 2420 2420 2420 2414 2410 2406 2400 2393 2388 2380 2377 2376 2377 2380 2388 2392 2400 2405 2409 2413 2416 2420 2420 2420 2420 2420 2420 2420 2414 2412 2408 2400 2397 2395 2393 2392 2394 2397 2400 2410 2420 2424 2428 2431 2435 2435 2434 2433 2432 2430 2420 2420 2420 2420 2420 2428 2433 2440 2448 2453 2455 2456 2455 2454 2453 2453 2452 2450 2452 2454 2453 2456 2460 2468 2473 2480 2485 2487 2493 2495 2500 2506 2507 2507 2508 2510 2500 2500 2500 2500 2500 2500 2492 2490 2488 2487 2486 2488 2494 2500 2507 2512 2520 2530 2540 2548 2553 2560 2580 2600 2605 2609 2614 2616 2620 2625 2630 2635 2640 2640 2640 2632 2628 2620 2615 2613 2607 2605 2600 2580 2572 2568 2560 2552 2548 2540 2532 2528 2526 2520 2510 2500 2480 2460 2440 2434 2430 2427 2430 2434 2440 2450 2460 2466 2470 2472 2473 2474 2477 2480 2485 2487 2489 2493 2495 2495 2500 2500 2520 2540 2543 2544 2545 2545 2542 2540 2520 2500 2493 2487 2480 2475 2470 2465 2460 2453 2447 2440 2434 2430 2426 2420 2415 2413 2407 2405 2400 2390 2380 2370 2360 2350 2340 2320 2313 2308 2300 2296 2292 2288 2284 2280 2270 2260 2250 2240 2232 2227 2220 2213 2207 2200 2190 2180 2170 2160 2120 2123 2125 2126 2127 2125 2124 2117 2118 2118 2118 2118 2118 2118 2117 2117 2116 2116 2116 2116 2116 2116 2116 2116 2116 2115 2115 2115 2115 2114 2114 2114 2113 2113 2112 2111 2110 2109 2107 2105 2104 2102 2100 2098 2095 2093 2091 2090 2089 2089 2089 2089 2091 2092 2092 2094 2094 2094 2094 2093 2092 2091 2090 2089 2086 2084 2080 2076 2072 2068 2064 2060 2053 2048 2040 2036 2034 2029 2025 2020 2015 2010 2005 2000 1998 1996 1997 1998 1998 2000 2005 2007 2013 2015 2016 2016 2017 2017 2017 2015 2014 2012 2012 2008 2007 2004 2003 2000 1996 1993 1990 1988 1987 1985 1983 1983 1980 1977 1975 1971 1969 1965 1964 1960 1953 1948 1940 1939 1939 1939 1939 1940 1944 1948 1952 1956 1960 1965 1968 1974 1980 1982 1985 1988 1990 1993 1995 1997 2000 2007 2013 2020 2025 2030 2035 2040 2044 2048 2052 2056 2060 2064 2068 2072 2076 2080 2085 2090 2095 2100 2110 2120 2130 2140 2145 2150 2155 2160 2167 2173 2180 2187 2193 2200 2207 2213 2220 2230 2240 2245 2250 2255 2260 2270 2280 2287 2293 2300 2310 2320 2330 2340 2347 2353 2360 2363 2366 2364 2360 2360 2355 2352 2354 2356 2360 2368 2373 2380 2380 2382 2380 2373 2367 2360 2355 2350 2345 2340 2335
2013 2015 2015 2015 2015 2015 2013 2008 2006 2005 2005 2008 2014 2020 2027 2033 2040 2050 2060 2070 2080 2088 2093 2100 2107 2112 2120 2130 2140 2144 2146 2151 2155 2160 2163 2167 2170 2173 2176 2180 2182 2182 2182 2182 2182 2180 2180 2180 2173 2173 2174 2180 2190 2200 2205 2210 2215 2220 2226 2232 2235 2240 2233 2232 2228 2220 2214 2212 2208 2200 2195 2195 2194 2196 2200 2210 2220 2240 2244 2248 2251 2252 2251 2248 2246 2240 2234 2230 2226 2225 2220 2215 2220 2230 2240 2250 2260 2270 2280 2290 2300 2308 2312 2320 2327 2333 2340 2347 2350 2352 2351 2348 2347 2346 2348 2354 2360 2367 2373 2380 2386 2390 2394 2400 2404 2404 2407 2409 2412 2413 2414 2415 2420 2420 2425 2425 2426 2428 2428 2428 2428 2426 2424 2424 2423 2420 2413 2407 2400 2400 2390 2380 2377 2377 2380 2387 2392 2400 2405 2407 2413 2415 2420 2423 2423 2423 2423 2423 2423 2423 2420 2420 2412 2408 2400 2397 2396 2395 2395 2397 2400 2410 2420 2425 2429 2433 2436 2440 2440 2440 2440 2440 2440 2430 2428 2427 2427 2432 2440 2448 2452 2460 2460 2460 2460 2460 2460 2460 2460 2460 2460 2460 2456 2460 2468 2472 2480 2485 2487 2493 2495 2500 2506 2510 2513 2513 2513 2520 2520 2520 2520 2520 2510 2510 2500 2500 2493 2493 2492 2490 2493 2496 2500 2510 2520 2530 2540 2547 2552 2560 2580 2600 2604 2608 2612 2616 2620 2625 2630 2635 2640 2642 2642 2640 2632 2628 2620 2615 2611 2607 2595 2600 2580 2572 2567 2560 2552 2548 2540 2533 2528 2520 2512 2508 2500 2480 2460 2440 2434 2433 2434 2440 2450 2460 2466 2470 2474 2475 2476 2477 2477 2480 2486 2490 2493 2495 2500 2500 2513 2517 2523 2540 2543 2546 2547 2545 2543 2540 2520 2500 2493 2487 2480 2474 2468 2465 2460 2453 2447 2440 2432 2427 2420 2415 2413 2407 2405 2400 2392 2388 2380 2370 2360 2350 2340 2330 2320 2310 2300 2296 2292 2288 2284 2280 2270 2260 2250 2240 2230 2220 2215 2212 2206 2200 2190 2180 2170 2160 2120 2122 2124 2126 2125 2124 2123 2122 2120 2120 2120 2120 2120 2119 2118 2117 2117 2116 2116 2116 2117 2116 2117 2116 2116 2116 2116 2116 2116 2115 2115 2115 2114 2114 2113 2112 2111 2109 2107 2106 2104 2102 2100 2098 2096 2094 2092 2091 2091 2091 2091 2091 2092 2094 2095 2096 2096 2096 2096 2095 2094 2094 2093 2092 2089 2085 2080 2076 2074 2070 2066 2064 2060 2052 2047 2040 2035 2030 2025 2020 2015 2010 2005 2000 1998 1998 1998 2000 2000 2006 2008 2013 2015 2020 2020 2020 2020 2020 2020 2017 2017 2016 2013 2012 2008 2007 2004 2003 2000 1996 1994 1991 1990 1988 1986 1985 1983 1980 1976 1975 1971 1969 1965 1964 1960 1952 1948 1940 1939 1939 1939 1940 1944 1948 1952 1956 1960 1965 1970 1975 1980 1982 1985 1988 1990 1993 1995 1997 2000 2007 2013 2020 2025 2030 2035 2040 2044 2048 2052 2056 2060 2064 2066 2071 2075 2080 2085 2090 2095 2100 2110 2120 2130 2140 2145 2150 2155 2160 2168 2173 2180 2188 2193 2200 2207 2213 2220 2230 2240 2245 2250 2255 2260 2270 2280 2287 2293 2300 2310 2320 2330 2340 2347 2353 2360 2364 2367 2366 2365 2360 2356 2355 2356 2360 2367 2372 2380 2382 2382 2382 2380 2373 2368 2360 2355 2350 2345 2340 2336
2015 2020 2020 2020 2020 2020 2015 2014 2012 2009 2008 2011 2015 2020 2027 2032 2040 2050 2060 2070 2080 2086 2090 2094 2100 2108 2112 2120 2130 2140 2145 2148 2154 2160 2163 2165 2169 2172 2176 2180 2182 2184 2184 2185 2184 2183 2183 2183 2180 2180 2175 2180 2190 2200 2205 2210 2215 2220 2228 2233 2240 2244 2240 2240 2232 2230 2220 2220 2212 2208 2200 2200 2196 2200 2210 2220 2230 2240 2245 2249 2254 2256 2255 2254 2250 2247 2240 2234 2232 2228 2227 2220 2227 2232 2240 2250 2260 2280 2288 2292 2300 2310 2320 2326 2330 2334 2340 2350 2353 2355 2355 2354 2353 2352 2351 2355 2360 2367 2373 2380 2387 2393 2400 2404 2405 2408 2410 2413 2415 2420 2420 2420 2426 2427 2428 2430 2431 2432 2432 2432 2432 2430 2428 2427 2424 2420 2414 2410 2406 2405 2400 2390 2380 2380 2380 2387 2393 2400 2405 2410 2415 2420 2423 2425 2426 2427 2427 2427 2427 2425 2424 2424 2420 2412 2408 2400 2397 2397 2397 2398 2400 2410 2420 2426 2430 2434 2440 2443 2443 2443 2443 2443 2443 2440 2433 2433 2433 2434 2440 2450 2460 2464 2465 2465 2466 2467 2467 2467 2467 2467 2466 2465 2460 2467 2472 2480 2485 2487 2493 2495 2500 2506 2510 2514 2520 2520 2520 2527 2527 2527 2527 2527 2520 2520 2510 2508 2500 2500 2495 2494 2496 2500 2500 2510 2520 2528 2533 2540 2548 2570 2580 2600 2604 2606 2611 2615 2620 2625 2628 2634 2640 2643 2644 2643 2640 2630 2620 2616 2613 2610 2592 2590 2580 2574 2570 2566 2560 2552 2547 2540 2532 2528 2520 2510 2500 2483 2473 2460 2440 2440 2440 2450 2460 2466 2470 2474 2480 2480 2480 2480 2480 2486 2490 2494 2495 2500 2513 2517 2523 2527 2540 2544 2545 2547 2548 2546 2543 2540 2520 2500 2493 2487 2480 2473 2467 2460 2455 2453 2447 2432 2428 2420 2414 2412 2407 2405 2400 2393 2388 2380 2370 2360 2352 2348 2340 2320 2313 2308 2300 2296 2292 2288 2284 2280 2270 2260 2250 2240 2230 2220 2214 2208 2205 2200 2190 2180 2170 2160 2120 2122 2124 2125 2124 2123 2122 2120 2122 2122 2122 2122 2122 2120 2119 2118 2118 2117 2117 2117 2117 2117 2117 2117 2117 2117 2117 2117 2116 2116 2116 2116 2115 2115 2114 2113 2111 2109 2108 2105 2103 2102 2100 2098 2096 2094 2093 2092 2093 2093 2093 2094 2094 2095 2097 2098 2098 2098 2098 2097 2097 2097 2096 2095 2093 2087 2085 2080 2076 2072 2068 2064 2060 2053 2048 2040 2035 2030 2025 2020 2015 2010 2005 2000 1998 1998 2000 2005 2006 2010 2014 2015 2020 2024 2024 2024 2024 2024 2024 2020 2020 2017 2016 2013 2012 2008 2007 2004 2003 2000 1996 1995 1992 1991 1989 1988 1985 1983 1980 1976 1975 1971 1969 1965 1964 1960 1950 1940 1939 1940 1940 1940 1944 1948 1952 1956 1960 1965 1970 1975 1980 1983 1985 1988 1990 1993 1995 1997 2000 2007 2013 2020 2025 2030 2035 2040 2044 2047 2051 2055 2057 2060 2065 2070 2075 2080 2086 2092 2095 2100 2110 2120 2130 2140 2145 2150 2155 2160 2170 2180 2187 2192 2200 2206 2210 2214 2220 2230 2240 2245 2250 2255 2260 2270 2280 2287 2293 2300 2310 2320 2330 2340 2347 2353 2360 2364 2368 2370 2368 2367 2360 2357 2357 2360 2368 2373 2380 2382 2384 2383 2382 2380 2370 2360 2355 2352 2346 2340 2336
2020 2025 2025 2025 2025 2025 2020 2020 2015 2014 2011 2012 2015 2017 2020 2028 2033 2040 2050 2060 2070 2080 2086 2090 2094 2100 2108 2113 2120 2130 2140 2146 2150 2154 2160 2164 2166 2171 2175 2180 2182 2184 2186 2187 2186 2186 2186 2185 2184 2184 2180 2187 2192 2200 2205 2210 2215 2220 2230 2240 2244 2246 2245 2245 2240 2240 2230 2228 2220 2212 2210 2210 2200 2208 2212 2220 2230 2240 2246 2252 2255 2260 2260 2260 2254 2252 2248 2240 2235 2234 2232 2228 2230 2234 2240 2250 2260 2280 2290 2300 2307 2312 2320 2327 2333 2340 2350 2360 2360 2360 2360 2360 2360 2355 2355 2356 2360 2367 2373 2380 2387 2393 2400 2404 2408 2411 2414 2416 2420 2424 2425 2426 2430 2433 2434 2435 2435 2436 2436 2436 2436 2434 2431 2429 2425 2424 2420 2414 2410 2405 2400 2392 2387 2385 2385 2388 2394 2400 2406 2412 2415 2420 2424 2427 2429 2430 2430 2430 2430 2429 2428 2426 2425 2420 2412 2408 2400 2400 2400 2398 2400 2408 2413 2420 2430 2440 2440 2443 2446 2447 2447 2447 2445 2444 2440 2440 2440 2440 2440 2450 2460 2465 2469 2470 2472 2473 2473 2473 2473 2473 2472 2467 2465 2468 2474 2480 2485 2490 2495 2500 2506 2510 2514 2520 2528 2530 2530 2532 2533 2533 2533 2532 2530 2528 2520 2512 2510 2510 2500 2496 2500 2510 2510 2520 2525 2528 2534 2540 2550 2560 2580 2590 2600 2605 2609 2614 2616 2620 2627 2632 2640 2643 2645 2644 2643 2640 2630 2620 2616 2613 2610 2593 2600 2580 2573 2568 2560 2554 2550 2546 2540 2532 2527 2520 2500 2488 2476 2471 2460 2450 2440 2450 2460 2468 2473 2480 2487 2487 2487 2487 2487 2490 2494 2500 2500 2517 2523 2527 2540 2540 2545 2546 2549 2550 2549 2547 2544 2540 2520 2500 2493 2487 2480 2472 2467 2460 2449 2442 2427 2427 2420 2413 2410 2406 2405 2400 2400 2390 2387 2380 2360 2353 2348 2340 2330 2320 2313 2307 2300 2296 2292 2288 2284 2280 2260 2253 2248 2240 2220 2215 2212 2206 2200 2190 2180 2170 2160 2140 2120 2122 2124 2124 2122 2122 2120 2122 2122 2123 2123 2123 2123 2122 2120 2119 2119 2118 2118 2118 2118 2118 2118 2118 2118 2118 2118 2118 2117 2117 2117 2117 2116 2116 2115 2114 2111 2110 2107 2105 2102 2100 2098 2097 2096 2094 2093 2093 2095 2095 2096 2096 2096 2097 2098 2100 2100 2100 2100 2100 2100 2100 2100 2100 2095 2092 2086 2080 2076 2074 2070 2067 2064 2060 2050 2040 2035 2030 2025 2020 2015 2011 2006 2004 2000 2000 2005 2007 2012 2014 2020 2020 2020 2025 2028 2028 2028 2028 2026 2025 2024 2020 2017 2016 2013 2011 2008 2006 2004 2003 2000 1997 1995 1994 1992 1990 1988 1985 1983 1980 1976 1975 1971 1969 1965 1964 1960 1950 1940 1944 1944 1943 1945 1949 1953 1956 1960 1966 1972 1975 1980 1983 1985 1988 1991 1994 1996 1997 2000 2007 2013 2020 2025 2030 2035 2040 2044 2048 2052 2056 2060 2065 2067 2073 2075 2080 2088 2093 2100 2107 2112 2120 2130 2140 2145 2150 2155 2160 2170 2180 2187 2193 2200 2207 2213 2220 2227 2232 2240 2245 2250 2255 2260 2270 2280 2287 2293 2300 2310 2320 2330 2340 2347 2353 2360 2365 2369 2373 2374 2372 2368 2360 2357 2360 2370 2380 2382 2383 2385 2384 2382 2380 2372 2367 2360 2353 2347 2340 2337
2027 2028 2030 2030 2030 2028 2027 2026 2020 2016 2015 2013 2014 2017 2020 2027 2033 2040 2050 2060 2068 2072 2080 2087 2093 2100 2106 2110 2114 2120 2130 2140 2146 2150 2154 2160 2165 2168 2174 2180 2182 2184 2186 2187 2189 2189 2189 2189 2188 2186 2185 2188 2194 2200 2205 2210 2215 2220 2230 2240 2245 2249 2250 2248 2247 2247 2240 2232 2228 2220 2220 2220 2210 2212 2220 2227 2232 2240 2248 2253 2260 2263 2263 2263 2260 2260 2252 2248 2240 2240 2240 2233 2234 2240 2248 2252 2260 2280 2290 2300 2308 2313 2320 2328 2333 2340 2360 2364 2365 2365 2365 2365 2365 2360 2360 2357 2360 2367 2373 2380 2387 2393 2400 2405 2409 2413 2416 2420 2424 2427 2429 2432 2434 2440 2440 2440 2440 2440 2440 2440 2440 2436 2435 2431 2428 2424 2420 2415 2410 2405 2400 2394 2390 2388 2389 2393 2395 2400 2407 2413 2420 2424 2425 2429 2432 2433 2433 2433 2433 2433 2432 2431 2428 2427 2420 2412 2408 2407 2407 2400 2405 2408 2414 2420 2430 2440 2444 2445 2448 2450 2450 2450 2449 2446 2445 2445 2445 2445 2447 2452 2460 2466 2472 2475 2475 2480 2480 2480 2480 2480 2475 2473 2470 2471 2475 2480 2485 2490 2495 2500 2507 2513 2520 2528 2532 2540 2540 2540 2540 2540 2540 2540 2540 2532 2530 2520 2520 2520 2510 2500 2510 2520 2520 2524 2526 2531 2535 2540 2550 2560 2580 2590 2600 2604 2608 2611 2615 2617 2620 2630 2640 2643 2646 2648 2645 2644 2640 2630 2620 2615 2614 2610 2606 2600 2580 2572 2568 2560 2553 2548 2540 2533 2527 2520 2500 2489 2484 2472 2460 2452 2450 2460 2468 2472 2480 2490 2492 2493 2493 2493 2493 2494 2500 2517 2520 2523 2540 2540 2547 2547 2548 2551 2552 2553 2551 2548 2544 2540 2520 2500 2493 2487 2480 2470 2460 2460 2447 2436 2430 2420 2412 2408 2406 2400 2400 2390 2380 2380 2380 2360 2354 2350 2346 2340 2330 2320 2313 2307 2300 2296 2292 2288 2284 2280 2260 2253 2247 2240 2220 2215 2210 2205 2200 2190 2180 2170 2160 2140 2120 2122 2122 2122 2122 2120 2122 2123 2124 2125 2125 2125 2124 2123 2122 2120 2120 2119 2119 2119 2119 2119 2119 2119 2119 2119 2119 2119 2119 2118 2118 2118 2118 2118 2117 2114 2113 2110 2108 2105 2103 2100 2098 2097 2096 2094 2094 2095 2096 2097 2098 2098 2098 2098 2100 2101 2101 2101 2101 2101 2101 2101 2101 2101 2100 2094 2090 2086 2080 2076 2073 2070 2066 2064 2060 2040 2035 2030 2025 2020 2016 2012 2009 2005 2004 2004 2007 2011 2015 2020 2024 2025 2025 2027 2031 2032 2032 2032 2031 2029 2027 2025 2020 2017 2014 2012 2010 2008 2006 2004 2003 2000 1997 1997 1995 1992 1990 1988 1985 1984 1980 1976 1975 1971 1968 1964 1960 1952 1947 1946 1947 1946 1947 1950 1953 1957 1960 1967 1973 1980 1982 1984 1986 1989 1992 1995 1997 2000 2005 2008 2014 2020 2025 2030 2035 2040 2044 2048 2052 2056 2060 2065 2070 2075 2080 2087 2092 2100 2105 2108 2114 2120 2130 2140 2145 2150 2155 2160 2170 2180 2187 2193 2200 2207 2213 2220 2227 2233 2240 2245 2250 2255 2260 2270 2280 2287 2293 2300 2310 2320 2330 2340 2347 2353 2360 2366 2372 2375 2380 2380 2372 2367 2360 2370 2380 2383 2384 2386 2386 2385 2383 2380 2373 2368 2360 2353 2347 2340 2337
2033 2034 2035 2035 2035 2034 2033 2030 2027 2020 2017 2016 2015 2017 2020 2026 2030 2034 2040 2050 2060 2070 2080 2086 2090 2094 2100 2106 2110 2114 2120 2130 2140 2146 2150 2154 2160 2166 2170 2174 2180 2183 2184 2187 2188 2192 2192 2193 2192 2191 2190 2191 2195 2200 2205 2210 2215 2220 2230 2240 2246 2252 2255 2254 2253 2252 2248 2240 2232 2228 2227 2227 2220 2220 2220 2227 2233 2240 2250 2260 2260 2263 2266 2265 2264 2264 2260 2252 2248 2246 2245 2240 2235 2240 2250 2260 2270 2280 2300 2308 2312 2320 2327 2332 2340 2350 2360 2365 2369 2370 2370 2370 2368 2367 2367 2360 2366 2368 2374 2380 2387 2393 2400 2405 2408 2414 2420 2424 2427 2430 2433 2435 2440 2442 2442 2442 2442 2442 2442 2442 2442 2440 2436 2434 2429 2425 2420 2415 2410 2405 2400 2395 2392 2390 2392 2395 2400 2406 2410 2414 2420 2424 2428 2431 2435 2437 2437 2437 2437 2436 2436 2435 2434 2432 2430 2420 2413 2413 2412 2408 2408 2411 2415 2420 2430 2440 2444 2448 2451 2453 2453 2453 2452 2451 2450 2450 2450 2449 2450 2454 2460 2468 2473 2480 2480 2485 2485 2486 2487 2487 2480 2475 2475 2475 2476 2480 2485 2490 2495 2500 2508 2513 2520 2530 2540 2546 2548 2550 2550 2550 2550 2550 2550 2540 2540 2540 2530 2530 2520 2520 2520 2527 2526 2527 2529 2532 2536 2540 2550 2560 2580 2590 2600 2604 2607 2610 2613 2617 2620 2630 2640 2644 2647 2650 2649 2646 2645 2640 2630 2620 2620 2614 2610 2606 2600 2580 2572 2568 2560 2550 2540 2533 2528 2520 2510 2500 2487 2473 2460 2454 2460 2468 2472 2480 2490 2500 2500 2500 2500 2500 2500 2500 2517 2523 2540 2540 2547 2548 2552 2553 2554 2555 2556 2555 2553 2547 2545 2540 2520 2500 2493 2487 2480 2472 2467 2443 2437 2432 2420 2412 2408 2400 2400 2392 2390 2380 2372 2370 2360 2360 2352 2347 2340 2333 2328 2320 2313 2307 2300 2296 2292 2288 2284 2280 2260 2253 2247 2240 2220 2214 2208 2205 2200 2190 2180 2160 2150 2140 2130 2120 2120 2122 2120 2122 2123 2124 2125 2126 2127 2127 2125 2125 2123 2122 2122 2120 2120 2120 2120 2119 2120 2120 2120 2120 2120 2120 2120 2120 2120 2120 2120 2120 2118 2116 2114 2111 2108 2106 2103 2100 2098 2097 2096 2095 2096 2096 2097 2098 2100 2100 2100 2100 2101 2101 2102 2102 2102 2102 2102 2102 2102 2101 2101 2100 2094 2090 2086 2080 2076 2072 2068 2064 2060 2040 2034 2028 2025 2020 2016 2013 2010 2007 2007 2008 2010 2013 2016 2020 2025 2029 2030 2033 2035 2036 2036 2036 2035 2033 2030 2026 2020 2017 2016 2014 2012 2010 2008 2007 2005 2003 2000 2000 1997 1995 1993 1991 1989 1985 1984 1980 1976 1974 1969 1965 1960 1954 1950 1949 1948 1948 1949 1951 1954 1957 1960 1967 1973 1980 1982 1985 1987 1990 1992 1995 1997 2000 2005 2010 2015 2020 2025 2030 2035 2040 2044 2048 2052 2056 2060 2065 2070 2075 2080 2087 2093 2100 2105 2110 2115 2120 2130 2140 2145 2150 2155 2160 2170 2180 2187 2193 2200 2207 2213 2220 2227 2233 2240 2245 2250 2255 2260 2270 2280 2287 2293 2300 2310 2320 2330 2340 2347 2353 2360 2368 2373 2380 2382 2380 2374 2370 2367 2372 2380 2383 2385 2387 2388 2386 2384 2383 2380 2370 2360 2354 2348 2345 2340
2040 2040 2040 2040 2040 2040 2040 2034 2032 2028 2020 2017 2017 2017 2018 2020 2027 2033 2040 2048 2052 2060 2060 2080 2086 2090 2094 2100 2106 2110 2114 2120 2130 2140 2146 2150 2154 2160 2166 2172 2175 2180 2183 2185 2189 2191 2195 2196 2196 2195 2195 2195 2196 2200 2205 2208 2214 2220 2230 2240 2248 2253 2260 2260 2260 2260 2252 2250 2240 2233 2233 2232 2230 2230 2228 2230 2234 2240 2250 2260 2264 2265 2268 2269 2268 2266 2265 2260 2253 2252 2247 2245 2240 2247 2252 2260 2270 2280 2300 2310 2320 2326 2330 2334 2340 2350 2360 2366 2372 2375 2375 2375 2374 2373 2372 2370 2370 2371 2375 2380 2386 2392 2395 2400 2407 2413 2420 2425 2429 2433 2436 2440 2443 2444 2445 2445 2445 2445 2445 2445 2444 2443 2440 2435 2432 2426 2420 2415 2410 2405 2400 2396 2393 2391 2393 2396 2400 2407 2413 2420 2424 2427 2430 2434 2436 2440 2440 2440 2440 2440 2440 2440 2440 2440 2440 2430 2420 2420 2420 2413 2414 2415 2416 2417 2420 2440 2445 2449 2453 2456 2457 2456 2456 2455 2455 2455 2455 2454 2452 2455 2460 2470 2480 2484 2485 2487 2490 2492 2493 2492 2488 2480 2480 2480 2480 2485 2487 2493 2495 2500 2510 2520 2530 2540 2546 2550 2553 2560 2560 2560 2560 2560 2560 2560 2560 2560 2560 2540 2540 2530 2530 2532 2532 2531 2532 2533 2535 2537 2540 2560 2570 2580 2600 2603 2607 2610 2613 2617 2620 2630 2640 2645 2649 2652 2652 2651 2647 2645 2640 2630 2627 2620 2614 2610 2606 2600 2580 2572 2568 2560 2550 2540 2530 2520 2510 2500 2487 2473 2460 2460 2460 2470 2480 2490 2500 2510 2520 2510 2507 2517 2520 2520 2523 2540 2548 2550 2552 2553 2560 2560 2560 2560 2560 2560 2552 2547 2540 2527 2517 2500 2493 2487 2480 2474 2445 2433 2420 2420 2412 2408 2400 2392 2390 2388 2380 2370 2368 2360 2354 2352 2348 2340 2334 2330 2326 2320 2313 2307 2300 2295 2291 2286 2284 2280 2260 2252 2247 2240 2230 2210 2206 2200 2190 2180 2170 2160 2150 2140 2132 2127 2125 2120 2123 2124 2125 2125 2126 2127 2128 2128 2127 2126 2126 2125 2124 2123 2123 2123 2123 2120 2123 2122 2122 2122 2122 2122 2122 2122 2122 2121 2121 2121 2120 2117 2114 2112 2109 2106 2103 2100 2099 2097 2096 2097 2097 2098 2098 2100 2101 2101 2101 2101 2101 2102 2103 2103 2103 2103 2103 2103 2102 2102 2101 2101 2100 2093 2087 2080 2076 2074 2069 2065 2060 2040 2033 2028 2020 2017 2016 2013 2011 2009 2010 2011 2014 2016 2020 2026 2028 2033 2035 2035 2040 2040 2040 2040 2040 2035 2034 2030 2026 2020 2017 2016 2014 2012 2011 2009 2008 2005 2004 2003 2000 1997 1996 1995 1991 1989 1986 1984 1980 1975 1970 1965 1960 1955 1954 1952 1951 1950 1950 1952 1954 1957 1960 1967 1973 1980 1982 1985 1988 1990 1993 1995 1997 2000 2005 2010 2015 2020 2025 2030 2035 2040 2044 2048 2052 2056 2060 2065 2070 2075 2080 2087 2093 2100 2105 2110 2115 2120 2130 2140 2145 2150 2155 2160 2170 2180 2187 2193 2200 2207 2213 2220 2227 2233 2240 2245 2250 2255 2260 2270 2280 2287 2293 2300 2310 2320 2330 2340 2347 2353 2360 2370 2380 2383 2384 2383 2380 2374 2373 2374 2380 2383 2386 2389 2390 2388 2386 2383 2380 2370 2360 2355 2351 2347 2347
2048 2050 2050 2050 2050 2050 2048 2040 2040 2032 2030 2020 2020 2018 2018 2020 2026 2032 2035 2040 2048 2053 2055 2060 2080 2086 2090 2094 2100 2106 2112 2115 2120 2130 2140 2147 2152 2160 2165 2167 2173 2175 2180 2185 2187 2193 2195 2200 2200 2200 2200 2200 2197 2197 2200 2207 2213 2220 2230 2240 2250 2260 2264 2264 2265 2265 2260 2260 2260 2240 2240 2240 2240 2240 2233 2234 2240 2247 2252 2260 2264 2268 2271 2273 2272 2271 2268 2267 2260 2255 2253 2248 2246 2248 2254 2260 2280 2290 2300 2310 2320 2327 2333 2340 2348 2352 2360 2368 2373 2380 2380 2380 2380 2380 2380 2380 2374 2375 2376 2380 2385 2390 2395 2400 2407 2413 2420 2426 2432 2435 2440 2443 2444 2446 2447 2448 2448 2448 2448 2447 2446 2444 2443 2440 2433 2428 2420 2415 2410 2405 2400 2397 2394 2393 2394 2397 2400 2408 2413 2420 2425 2429 2433 2436 2440 2442 2442 2442 2442 2442 2442 2442 2442 2442 2442 2440 2430 2430 2430 2420 2420 2420 2420 2420 2430 2440 2446 2450 2454 2460 2460 2460 2460 2460 2460 2460 2460 2456 2456 2456 2460 2470 2480 2485 2489 2493 2495 2495 2500 2500 2492 2488 2486 2485 2485 2486 2491 2495 2500 2507 2512 2520 2530 2540 2547 2553 2560 2573 2577 2580 2580 2580 2580 2580 2580 2580 2580 2560 2560 2560 2540 2540 2535 2535 2536 2536 2537 2540 2550 2560 2580 2590 2600 2603 2607 2610 2613 2617 2620 2640 2645 2647 2653 2655 2656 2655 2652 2646 2640 2633 2630 2626 2620 2614 2610 2606 2600 2580 2570 2560 2550 2540 2530 2520 2510 2500 2493 2488 2480 2470 2470 2480 2488 2492 2500 2510 2520 2513 2532 2527 2540 2540 2540 2550 2552 2560 2560 2560 2567 2567 2566 2566 2566 2560 2550 2540 2529 2524 2512 2500 2492 2487 2480 2455 2440 2420 2414 2412 2408 2400 2392 2388 2380 2380 2370 2360 2360 2355 2352 2347 2340 2333 2330 2326 2320 2314 2310 2306 2300 2295 2290 2285 2280 2270 2260 2250 2240 2240 2233 2213 2200 2193 2188 2180 2170 2160 2150 2140 2134 2130 2126 2124 2124 2126 2126 2127 2128 2129 2129 2129 2129 2129 2128 2127 2126 2126 2126 2126 2124 2123 2124 2125 2125 2124 2124 2124 2123 2123 2123 2123 2123 2121 2120 2117 2116 2112 2110 2107 2103 2100 2099 2097 2097 2098 2098 2098 2100 2101 2102 2102 2102 2102 2102 2103 2104 2104 2104 2104 2103 2103 2103 2102 2102 2101 2100 2094 2090 2086 2080 2075 2072 2066 2060 2050 2040 2030 2020 2017 2015 2013 2012 2012 2012 2015 2016 2020 2026 2030 2034 2035 2040 2040 2043 2043 2043 2043 2043 2040 2040 2034 2030 2026 2020 2017 2016 2014 2014 2012 2010 2009 2007 2005 2004 2000 2000 1996 1995 1992 1989 1985 1980 1975 1973 1968 1966 1960 1956 1954 1953 1951 1951 1953 1955 1957 1960 1967 1973 1980 1982 1985 1988 1990 1993 1995 1997 2000 2005 2010 2015 2020 2025 2030 2035 2040 2044 2048 2052 2056 2060 2065 2070 2075 2080 2087 2093 2100 2105 2110 2115 2120 2130 2140 2145 2150 2155 2160 2170 2180 2187 2193 2200 2207 2213 2220 2227 2233 2240 2245 2250 2255 2260 2270 2280 2287 2293 2300 2308 2312 2320 2340 2347 2353 2360 2370 2380 2383 2386 2384 2383 2380 2380 2380 2380 2384 2387 2390 2391 2390 2387 2384 2380 2370 2360 2356 2355 2353 2353
2053 2060 2060 2060 2060 2060 2052 2050 2048 2040 2040 2030 2028 2020 2020 2020 2025 2030 2035 2040 2046 2048 2054 2060 2070 2080 2087 2092 2100 2105 2107 2113 2115 2120 2130 2140 2148 2153 2160 2165 2167 2173 2175 2180 2188 2193 2200 2204 2204 2205 2205 2205 2200 2200 2206 2210 2214 2220 2230 2240 2250 2260 2264 2268 2269 2268 2267 2267 2267 2260 2260 2250 2250 2248 2240 2240 2240 2247 2253 2260 2265 2269 2274 2276 2276 2275 2274 2272 2270 2260 2255 2254 2252 2251 2255 2260 2280 2290 2300 2310 2320 2327 2333 2340 2350 2360 2368 2372 2380 2384 2385 2385 2385 2385 2385 2385 2380 2380 2380 2384 2386 2391 2395 2400 2407 2413 2420 2427 2433 2440 2443 2444 2447 2448 2450 2450 2450 2450 2450 2450 2448 2447 2444 2443 2440 2430 2420 2415 2412 2406 2400 2397 2395 2394 2396 2397 2400 2410 2420 2424 2427 2431 2435 2440 2442 2443 2445 2445 2445 2445 2445 2445 2445 2444 2443 2442 2440 2440 2440 2430 2430 2428 2427 2427 2430 2434 2440 2450 2460 2463 2463 2464 2464 2465 2465 2465 2465 2460 2460 2460 2468 2472 2480 2486 2492 2495 2500 2500 2504 2504 2500 2493 2492 2490 2489 2489 2492 2496 2500 2507 2513 2520 2530 2540 2548 2553 2560 2580 2587 2600 2600 2600 2600 2600 2600 2600 2600 2600 2600 2580 2560 2550 2540 2540 2540 2540 2537 2540 2550 2560 2580 2590 2600 2604 2607 2611 2615 2617 2620 2640 2646 2652 2655 2660 2660 2660 2654 2650 2646 2640 2634 2630 2626 2620 2614 2610 2606 2600 2580 2570 2560 2550 2540 2520 2512 2508 2500 2492 2487 2480 2480 2480 2490 2500 2510 2520 2528 2532 2534 2540 2547 2548 2550 2560 2560 2570 2570 2569 2571 2573 2573 2572 2566 2560 2550 2540 2528 2516 2511 2500 2490 2480 2455 2445 2420 2414 2410 2407 2400 2392 2388 2380 2372 2370 2360 2355 2355 2353 2347 2345 2340 2330 2327 2320 2314 2310 2306 2300 2294 2292 2287 2285 2280 2270 2260 2240 2230 2220 2227 2207 2200 2192 2187 2180 2170 2160 2150 2140 2135 2132 2129 2127 2126 2126 2127 2128 2129 2130 2131 2131 2131 2131 2130 2130 2129 2129 2129 2128 2127 2126 2127 2127 2127 2126 2126 2125 2125 2125 2124 2124 2123 2122 2121 2120 2117 2115 2111 2107 2104 2100 2099 2098 2098 2099 2100 2100 2101 2102 2103 2103 2103 2103 2104 2104 2104 2105 2105 2104 2104 2104 2104 2103 2102 2101 2101 2100 2094 2090 2086 2080 2073 2067 2060 2040 2030 2020 2018 2017 2015 2014 2014 2015 2016 2017 2020 2020 2028 2033 2040 2040 2043 2043 2044 2046 2046 2046 2044 2043 2043 2040 2034 2030 2026 2020 2017 2017 2017 2015 2013 2013 2011 2009 2006 2005 2005 2000 1996 1995 1993 1987 1985 1980 1975 1973 1968 1960 1957 1956 1954 1953 1952 1954 1956 1958 1960 1967 1973 1980 1983 1985 1988 1990 1993 1995 1997 2000 2005 2010 2015 2020 2025 2030 2035 2040 2044 2048 2052 2056 2060 2065 2070 2075 2080 2087 2093 2100 2105 2110 2115 2120 2130 2140 2145 2150 2155 2160 2170 2180 2187 2193 2200 2207 2213 2220 2227 2233 2240 2245 2250 2255 2260 2270 2280 2286 2292 2295 2300 2310 2320 2340 2347 2353 2360 2380 2383 2385 2388 2388 2385 2384 2383 2384 2384 2387 2390 2393 2393 2392 2389 2385 2380 2372 2367 2360 2360 2355 2360
2060 2068 2070 2070 2070 2070 2060 2060 2052 2048 2047 2040 2032 2028 2027 2027 2028 2031 2034 2036 2040 2046 2050 2054 2060 2070 2080 2088 2092 2100 2105 2107 2113 2115 2120 2130 2130 2153 2149 2160 2165 2168 2174 2180 2190 2200 2203 2205 2208 2209 2210 2208 2207 2207 2208 2214 2220 2228 2232 2240 2250 2260 2265 2269 2273 2274 2273 2273 2272 2270 2270 2260 2260 2252 2250 2248 2247 2250 2254 2260 2266 2272 2275 2280 2280 2280 2280 2280 2280 2270 2260 2260 2255 2254 2256 2260 2280 2290 2300 2310 2320 2327 2333 2340 2360 2360 2370 2380 2384 2387 2389 2390 2390 2390 2390 2388 2387 2386 2385 2385 2389 2392 2396 2400 2407 2412 2420 2427 2433 2440 2443 2446 2448 2451 2452 2453 2453 2453 2453 2452 2451 2448 2447 2445 2443 2440 2430 2420 2413 2408 2400 2398 2396 2396 2398 2400 2407 2412 2420 2425 2429 2433 2436 2440 2443 2445 2447 2448 2448 2448 2448 2447 2447 2446 2445 2444 2443 2443 2443 2440 2440 2433 2433 2433 2434 2435 2440 2450 2460 2463 2466 2467 2468 2469 2470 2470 2468 2467 2467 2467 2472 2480 2486 2490 2494 2500 2504 2505 2506 2506 2505 2500 2495 2495 2494 2493 2493 2496 2500 2507 2513 2520 2530 2540 2550 2560 2580 2600 2600 2604 2605 2606 2607 2607 2607 2607 2607 2606 2605 2600 2580 2560 2550 2548 2546 2545 2540 2547 2552 2560 2580 2590 2600 2604 2608 2612 2616 2620 2630 2640 2648 2653 2660 2663 2663 2663 2660 2654 2650 2646 2640 2634 2630 2626 2620 2614 2610 2606 2600 2580 2570 2560 2540 2530 2520 2510 2500 2494 2490 2487 2488 2490 2500 2510 2520 2528 2532 2540 2540 2548 2552 2553 2560 2573 2573 2576 2580 2578 2578 2579 2579 2574 2568 2560 2550 2540 2527 2513 2500 2492 2488 2480 2450 2420 2414 2410 2406 2400 2392 2388 2380 2372 2368 2360 2354 2352 2350 2347 2345 2340 2330 2320 2320 2320 2312 2307 2300 2294 2290 2286 2285 2280 2272 2268 2260 2240 2230 2220 2213 2207 2200 2190 2180 2173 2168 2160 2150 2140 2136 2133 2131 2129 2128 2128 2128 2130 2130 2132 2133 2133 2133 2133 2133 2132 2132 2131 2131 2131 2131 2129 2129 2130 2129 2128 2127 2127 2126 2126 2126 2125 2124 2123 2122 2121 2120 2116 2113 2109 2105 2103 2100 2099 2099 2100 2102 2102 2102 2103 2103 2104 2104 2104 2105 2105 2105 2105 2105 2105 2105 2105 2104 2103 2103 2102 2101 2101 2100 2093 2087 2080 2073 2067 2060 2040 2030 2020 2018 2016 2015 2015 2017 2017 2017 2020 2026 2028 2032 2040 2043 2043 2045 2047 2048 2048 2049 2048 2048 2046 2045 2043 2040 2034 2030 2026 2020 2020 2020 2017 2017 2016 2015 2012 2011 2010 2008 2007 2000 2000 1995 1992 1987 1980 1980 1980 1972 1967 1960 1957 1955 1954 1953 1954 1956 1958 1960 1967 1973 1980 1983 1985 1988 1991 1994 1996 1997 2000 2005 2010 2015 2020 2025 2030 2035 2040 2044 2048 2052 2056 2060 2065 2070 2075 2080 2087 2093 2100 2105 2110 2115 2120 2130 2140 2145 2150 2155 2160 2170 2180 2187 2193 2200 2207 2213 2220 2227 2233 2240 2245 2250 2255 2260 2270 2280 2285 2290 2295 2300 2310 2320 2330 2340 2360 2370 2380 2384 2387 2390 2390 2389 2387 2387 2387 2388 2390 2393 2396 2396 2395 2392 2386 2380 2374 2370 2366 2365 2360 2365
2068 2072 2080 2080 2080 2080 2080 2070 2060 2053 2052 2048 2040 2033 2033 2033 2034 2035 2036 2035 2037 2040 2046 2052 2055 2060 2070 2080 2088 2092 2100 2105 2107 2112 2114 2120 2126 2135 2145 2149 2160 2167 2172 2180 2190 2200 2204 2206 2210 2214 2215 2214 2213 2213 2214 2215 2220 2230 2240 2247 2252 2260 2266 2272 2275 2280 2280 2280 2280 2280 2280 2270 2270 2260 2260 2253 2253 2254 2260 2266 2270 2274 2280 2283 2284 2284 2284 2284 2284 2280 2270 2268 2260 2256 2260 2270 2280 2290 2300 2310 2320 2327 2333 2340 2360 2367 2372 2380 2385 2389 2393 2395 2395 2395 2395 2394 2393 2392 2389 2389 2389 2392 2395 2397 2400 2410 2420 2427 2433 2440 2443 2447 2450 2453 2454 2455 2455 2455 2455 2454 2453 2452 2449 2447 2444 2440 2432 2427 2420 2410 2400 2398 2397 2396 2398 2400 2407 2413 2420 2425 2430 2435 2440 2443 2444 2447 2449 2450 2450 2450 2450 2450 2449 2448 2447 2446 2446 2446 2445 2444 2444 2440 2440 2440 2440 2440 2447 2452 2460 2464 2467 2470 2471 2474 2475 2475 2474 2473 2473 2473 2474 2480 2487 2493 2500 2504 2507 2509 2511 2511 2508 2507 2500 2500 2496 2496 2495 2497 2500 2508 2513 2520 2530 2540 2550 2560 2600 2604 2604 2607 2609 2612 2613 2613 2613 2613 2613 2612 2607 2605 2600 2580 2560 2553 2552 2547 2545 2548 2554 2560 2580 2590 2600 2605 2609 2614 2616 2620 2640 2647 2652 2660 2664 2665 2667 2665 2664 2660 2654 2650 2646 2640 2634 2630 2626 2620 2613 2608 2600 2580 2570 2560 2540 2530 2520 2510 2500 2500 2494 2493 2493 2500 2500 2520 2520 2530 2540 2547 2548 2552 2560 2560 2577 2583 2587 2588 2589 2587 2585 2586 2582 2577 2568 2560 2550 2540 2527 2513 2500 2490 2480 2455 2445 2420 2413 2407 2400 2400 2390 2380 2372 2368 2360 2354 2350 2346 2345 2345 2340 2334 2330 2326 2315 2313 2308 2300 2294 2290 2286 2280 2280 2280 2270 2260 2250 2240 2230 2220 2213 2207 2200 2190 2180 2172 2167 2160 2150 2140 2137 2134 2132 2130 2129 2129 2130 2131 2132 2133 2134 2135 2135 2135 2135 2135 2135 2134 2134 2134 2134 2133 2132 2131 2130 2129 2129 2128 2128 2127 2127 2126 2125 2124 2123 2121 2120 2117 2113 2110 2108 2104 2103 2100 2100 2102 2102 2103 2103 2103 2104 2105 2105 2105 2106 2106 2106 2106 2106 2106 2106 2105 2105 2104 2104 2103 2102 2101 2100 2093 2087 2080 2073 2067 2060 2040 2030 2020 2018 2016 2016 2016 2018 2020 2020 2025 2028 2033 2040 2043 2045 2047 2048 2050 2051 2051 2051 2051 2051 2049 2048 2045 2043 2040 2034 2030 2026 2025 2024 2020 2020 2020 2016 2016 2015 2015 2014 2012 2010 2010 2000 1994 1992 1988 1986 1980 1973 1968 1960 1958 1957 1955 1954 1955 1956 1958 1960 1967 1973 1980 1983 1986 1989 1991 1994 1997 2000 2004 2006 2011 2015 2020 2025 2030 2035 2040 2044 2048 2052 2056 2060 2065 2070 2075 2080 2087 2093 2100 2105 2110 2115 2120 2130 2140 2145 2150 2155 2160 2170 2180 2187 2193 2200 2207 2213 2220 2227 2233 2240 2245 2250 2255 2260 2270 2280 2285 2290 2295 2300 2310 2320 2330 2340 2360 2370 2380 2385 2389 2392 2393 2393 2391 2390 2389 2391 2394 2396 2400 2400 2400 2394 2390 2386 2380 2374 2372 2367 2367 2368
