ncols        90
nrows        90
xllcorner    522000.000000000000
yllcorner    1103000.000000000000
cellsize     100.000000000000
NODATA_value -32767
 1832 1840 1836 1870 1882 1883 1876 1871 1894 1896 1875 1882 1886 1884 1900 1920 1900 1840 1794 1764 1754 1809 1811 1851 1871 1877 1888 1896 1916 1937 1946 1971 1977 1971 1997 2036 2064 2096 2133 2174 2208 2240 2237 2206 2180 2140 2020 2040 2105 2180 2193 2200 2149 2095 2013 1965 1953 1995 2080 2108 2013 1971 1920 1927 1929 1915 1892 1837 1862 1878 1891 1920 1980 2110 2170 2133 2093 2108 2147 2157 2153 2125 2080 2040 2034 2046 2036 1988 1930 1947
 1840 1868 1880 1880 1905 1910 1909 1900 1920 1931 1906 1896 1912 1907 1940 1943 1900 1844 1797 1800 1770 1827 1845 1860 1892 1910 1924 1927 1940 1972 1980 1990 2000 1993 1997 2020 2087 2103 2111 2132 2165 2204 2235 2244 2230 2214 2100 2088 2146 2214 2240 2233 2180 2100 2031 1972 1968 2007 2080 2087 2010 1967 1935 1946 1944 1930 1910 1870 1863 1892 1927 1953 1995 2120 2200 2135 2190 2205 2180 2171 2140 2120 2100 2072 2070 2057 2020 1967 1980 2005
 1836 1880 1896 1908 1913 1932 1936 1933 1925 1957 1920 1932 1955 1957 1965 1935 1880 1867 1816 1827 1780 1827 1889 1877 1927 1952 1957 1957 1968 2011 2027 2025 2040 2027 2014 2040 2103 2129 2137 2142 2140 2173 2210 2248 2260 2225 2110 2120 2170 2220 2289 2288 2180 2100 2050 1993 1978 2010 2070 2087 2005 1960 1964 1958 1960 1957 1933 1907 1873 1900 1940 1976 2027 2160 2207 2200 2242 2220 2194 2160 2149 2136 2116 2100 2080 2046 1998 2020 2040 2020
 1871 1872 1911 1942 1932 1960 1965 1960 1938 1968 1948 1976 1987 1991 1976 1940 1880 1901 1880 1880 1820 1815 1921 1900 1940 1963 1986 2000 1997 2010 2055 2047 2069 2063 2036 2067 2074 2125 2157 2162 2167 2163 2180 2224 2255 2245 2152 2133 2177 2233 2316 2314 2193 2128 2060 1990 1990 2014 2070 2068 2000 1977 1979 1973 1969 1965 1950 1926 1900 1893 1940 1983 2040 2160 2226 2244 2265 2232 2200 2183 2175 2162 2146 2120 2077 2060 2068 2052 2000 1977
 1900 1920 1915 1945 1966 1965 1980 1982 1956 1988 1988 2020 2027 2028 2020 1970 1905 1900 1925 1920 1880 1840 1886 1922 1926 1960 1983 2025 2047 2040 2080 2075 2093 2096 2064 2091 2115 2114 2164 2174 2179 2184 2180 2207 2237 2268 2226 2154 2176 2233 2316 2315 2210 2130 2067 2000 1997 2034 2088 2060 1993 2005 2005 1987 1976 1969 1962 1940 1910 1897 1940 1980 2040 2132 2190 2214 2281 2240 2226 2212 2194 2165 2118 2110 2124 2123 2102 2020 2008 2033
 1943 1949 1956 1951 1985 1982 1992 1997 1974 2016 2020 2043 2057 2060 2046 2010 1945 1926 1953 1963 1940 1920 1865 1880 1920 1980 2023 2020 2068 2100 2110 2098 2140 2140 2095 2114 2152 2145 2168 2188 2203 2212 2206 2199 2236 2280 2280 2210 2180 2233 2313 2320 2220 2140 2076 2044 1999 2037 2085 2050 2020 2030 2022 2003 1979 1971 1962 1930 1909 1899 1936 1976 2008 2087 2125 2187 2247 2267 2250 2240 2212 2155 2160 2156 2156 2140 2103 2030 2063 2055
 1962 1980 1976 1960 2000 2004 2012 2030 1990 2010 2035 2058 2080 2092 2070 2024 1993 1990 1987 2005 1983 1950 1900 1904 1920 1967 2020 2064 2070 2105 2154 2134 2176 2186 2148 2150 2197 2196 2175 2216 2229 2242 2228 2220 2248 2295 2340 2320 2248 2232 2315 2330 2230 2164 2100 2072 2040 2029 2076 2068 2063 2063 2046 2023 1991 1983 1948 1920 1908 1908 1934 1963 1991 2040 2110 2168 2232 2300 2273 2260 2224 2200 2191 2187 2174 2135 2093 2100 2087 2068
 1967 2004 1997 1996 2000 2036 2034 2052 2020 1999 2030 2069 2103 2117 2087 2047 2020 2014 2030 2044 2020 1960 1897 1898 1955 1967 2000 2066 2107 2113 2160 2186 2200 2230 2200 2172 2231 2250 2220 2245 2268 2255 2265 2238 2268 2310 2392 2380 2327 2295 2330 2350 2269 2192 2152 2105 2063 2045 2082 2087 2090 2088 2063 2030 2008 2006 1940 1919 1928 1922 1920 1954 1976 2008 2080 2147 2220 2280 2278 2260 2220 2232 2228 2213 2160 2125 2124 2133 2114 2090
 1992 2029 2023 2042 2027 2040 2068 2074 2055 2036 2030 2072 2115 2140 2100 2047 2060 2055 2065 2070 2048 1990 1907 1932 1980 2027 1993 2040 2124 2164 2180 2210 2263 2270 2240 2197 2235 2276 2260 2272 2300 2276 2284 2284 2328 2383 2454 2432 2372 2320 2366 2395 2362 2263 2190 2140 2080 2064 2092 2105 2116 2120 2073 2035 2027 2000 1938 1944 1949 1935 1919 1946 1973 2007 2070 2133 2210 2265 2273 2249 2250 2262 2251 2208 2156 2155 2167 2154 2137 2115
 2014 2050 2049 2049 2064 2044 2076 2091 2073 2076 2060 2072 2115 2147 2097 2100 2112 2092 2091 2080 2060 2007 1932 2008 2000 2100 2100 2040 2090 2165 2220 2245 2283 2311 2313 2300 2290 2295 2313 2295 2355 2300 2312 2310 2408 2468 2497 2480 2400 2354 2400 2442 2408 2320 2260 2213 2150 2076 2101 2108 2118 2120 2087 2038 2040 2008 1948 1968 1963 1940 1930 1943 1972 2015 2067 2127 2200 2280 2300 2276 2280 2276 2228 2190 2186 2208 2192 2171 2160 2130
 2037 2068 2073 2069 2096 2088 2105 2125 2094 2100 2105 2108 2120 2166 2120 2145 2147 2107 2120 2088 2063 2000 1988 2052 2050 2093 2160 2092 2134 2153 2230 2286 2295 2336 2356 2354 2320 2360 2340 2316 2385 2388 2370 2352 2433 2540 2604 2510 2468 2393 2410 2460 2453 2420 2350 2280 2226 2130 2100 2108 2114 2115 2100 2057 2049 2023 1980 1984 1980 1952 1937 1944 1980 2030 2071 2128 2200 2280 2330 2297 2314 2284 2250 2200 2240 2240 2214 2188 2172 2147
 2070 2095 2113 2086 2120 2115 2113 2146 2099 2134 2135 2117 2160 2188 2156 2173 2162 2148 2115 2070 2033 1994 2010 2104 2140 2120 2170 2193 2190 2220 2213 2293 2320 2373 2386 2392 2356 2391 2380 2406 2393 2434 2444 2452 2455 2510 2620 2612 2540 2440 2420 2471 2507 2472 2432 2353 2268 2200 2111 2111 2113 2109 2095 2083 2073 2037 1995 1997 1992 1967 1939 1945 1988 2035 2076 2133 2200 2280 2352 2340 2351 2300 2300 2290 2283 2260 2232 2205 2177 2132
 2108 2105 2141 2116 2157 2149 2146 2168 2130 2166 2168 2145 2187 2222 2200 2202 2180 2112 2083 2072 2030 2030 2014 2080 2146 2186 2194 2250 2210 2263 2234 2320 2365 2400 2434 2435 2390 2425 2428 2414 2449 2472 2470 2520 2540 2520 2600 2646 2606 2527 2468 2500 2552 2480 2406 2346 2284 2200 2122 2122 2119 2117 2096 2100 2100 2060 2004 2031 2014 1995 1968 1953 1992 2035 2080 2145 2213 2280 2360 2380 2360 2346 2330 2340 2304 2272 2252 2220 2180 2152
 2132 2132 2144 2140 2187 2180 2160 2188 2184 2184 2204 2186 2190 2243 2236 2210 2160 2095 2098 2124 2068 2093 2072 2054 2087 2143 2224 2270 2294 2286 2286 2333 2413 2398 2455 2460 2400 2444 2457 2460 2485 2494 2532 2540 2626 2600 2600 2674 2650 2560 2550 2624 2577 2420 2347 2293 2254 2180 2135 2146 2136 2124 2107 2110 2105 2050 2035 2063 2045 2029 2005 1957 1994 2035 2080 2145 2213 2280 2373 2400 2384 2375 2380 2360 2320 2294 2264 2209 2200 2197
 2148 2175 2160 2171 2213 2225 2188 2215 2220 2194 2236 2228 2197 2260 2260 2229 2140 2115 2160 2175 2095 2110 2130 2120 2078 2090 2180 2250 2335 2305 2373 2328 2428 2445 2460 2493 2480 2460 2493 2520 2508 2560 2594 2600 2642 2580 2648 2726 2653 2593 2650 2650 2550 2440 2350 2240 2200 2150 2165 2181 2146 2120 2116 2120 2104 2057 2075 2087 2073 2055 2020 1975 1994 2035 2080 2145 2213 2280 2372 2434 2420 2420 2404 2375 2345 2313 2267 2253 2245 2205
 2120 2209 2200 2200 2220 2254 2216 2242 2242 2204 2255 2255 2217 2275 2277 2233 2168 2203 2240 2232 2099 2160 2210 2172 2110 2100 2140 2200 2300 2364 2407 2408 2430 2480 2486 2533 2520 2500 2535 2580 2600 2595 2640 2660 2665 2647 2688 2768 2735 2720 2712 2620 2490 2427 2340 2240 2187 2160 2181 2181 2147 2118 2126 2126 2093 2091 2112 2113 2100 2076 2030 1985 1990 2028 2080 2145 2200 2268 2360 2440 2454 2452 2420 2408 2366 2316 2323 2288 2254 2233
 2027 2120 2220 2230 2235 2270 2260 2262 2260 2231 2280 2280 2260 2305 2293 2240 2200 2240 2260 2303 2180 2287 2293 2300 2160 2115 2167 2193 2240 2320 2420 2450 2440 2527 2497 2564 2557 2580 2552 2629 2647 2637 2670 2695 2707 2720 2727 2780 2810 2772 2667 2570 2480 2420 2300 2220 2183 2185 2188 2181 2152 2137 2156 2130 2098 2122 2131 2133 2122 2089 2045 2007 1997 2036 2105 2150 2195 2247 2320 2413 2480 2483 2456 2411 2374 2366 2340 2305 2277 2260
 1900 1994 2138 2207 2250 2286 2288 2280 2274 2268 2295 2312 2296 2342 2310 2248 2252 2287 2300 2335 2287 2340 2390 2360 2220 2137 2180 2232 2252 2300 2387 2472 2480 2568 2568 2600 2605 2632 2626 2624 2669 2680 2688 2740 2760 2775 2777 2787 2822 2740 2590 2520 2440 2380 2273 2203 2207 2225 2191 2174 2160 2170 2164 2127 2116 2133 2140 2145 2132 2097 2063 2024 2002 2047 2115 2160 2196 2245 2307 2393 2470 2493 2448 2430 2420 2384 2360 2310 2287 2266
 1795 1888 2000 2110 2176 2272 2321 2314 2307 2316 2298 2335 2328 2355 2307 2290 2288 2298 2353 2375 2372 2370 2423 2380 2265 2180 2174 2240 2280 2320 2392 2487 2500 2632 2634 2607 2660 2660 2668 2660 2693 2725 2720 2760 2806 2820 2810 2840 2807 2708 2560 2487 2390 2320 2260 2280 2268 2244 2196 2178 2186 2185 2164 2136 2130 2151 2154 2151 2142 2114 2077 2045 2007 2052 2116 2164 2196 2255 2313 2408 2485 2508 2487 2460 2435 2394 2373 2335 2305 2268
 1600 1700 1833 1980 2082 2214 2280 2306 2340 2347 2320 2355 2362 2360 2360 2312 2308 2335 2375 2405 2406 2408 2435 2415 2312 2245 2220 2250 2292 2370 2440 2540 2580 2650 2700 2640 2680 2691 2711 2714 2700 2768 2783 2765 2827 2864 2873 2846 2733 2620 2512 2430 2334 2300 2327 2312 2270 2220 2194 2200 2208 2191 2155 2153 2138 2164 2167 2162 2157 2143 2113 2074 2025 2060 2134 2171 2213 2280 2340 2427 2463 2447 2440 2433 2423 2389 2359 2348 2320 2320
 1520 1600 1737 1904 1975 2100 2179 2228 2280 2326 2362 2376 2380 2377 2367 2325 2340 2385 2415 2417 2430 2430 2463 2447 2354 2303 2300 2260 2315 2400 2480 2607 2660 2660 2744 2714 2694 2752 2760 2765 2740 2800 2827 2805 2835 2885 2891 2793 2657 2532 2472 2400 2347 2376 2357 2330 2320 2228 2243 2245 2223 2180 2168 2167 2151 2167 2178 2180 2173 2166 2140 2105 2060 2087 2148 2184 2235 2300 2385 2428 2389 2380 2360 2360 2380 2353 2350 2342 2332 2330
 1489 1570 1715 1821 1912 1975 2067 2113 2160 2290 2340 2386 2400 2396 2388 2365 2403 2412 2433 2437 2460 2448 2489 2492 2428 2348 2328 2280 2334 2413 2520 2670 2727 2700 2740 2772 2727 2776 2815 2820 2840 2820 2875 2848 2885 2930 2880 2667 2590 2500 2420 2359 2424 2393 2376 2360 2328 2285 2271 2240 2200 2177 2183 2175 2162 2171 2187 2194 2190 2191 2174 2132 2093 2100 2165 2205 2270 2315 2375 2360 2333 2325 2320 2280 2287 2267 2280 2260 2248 2240
 1457 1520 1663 1770 1856 1900 1959 2020 2100 2260 2313 2370 2405 2400 2422 2400 2407 2435 2461 2454 2474 2495 2496 2547 2510 2420 2350 2298 2354 2440 2570 2714 2763 2764 2793 2805 2780 2840 2868 2873 2895 2892 2920 2915 2948 2928 2800 2660 2570 2480 2393 2448 2450 2420 2388 2373 2348 2300 2265 2223 2195 2186 2190 2183 2174 2182 2191 2216 2213 2209 2186 2135 2100 2120 2180 2246 2295 2345 2349 2320 2293 2269 2246 2226 2208 2198 2196 2200 2192 2184
 1410 1505 1582 1700 1810 1865 1926 1970 2035 2160 2280 2346 2420 2427 2442 2433 2415 2420 2462 2467 2485 2514 2554 2586 2592 2533 2465 2360 2367 2450 2660 2767 2797 2812 2856 2862 2830 2880 2904 2933 2948 2953 2960 3000 2980 2905 2800 2687 2580 2470 2485 2491 2474 2447 2423 2380 2345 2288 2263 2223 2213 2220 2198 2180 2185 2197 2200 2230 2240 2224 2194 2140 2118 2180 2240 2293 2346 2405 2376 2353 2332 2300 2280 2264 2235 2208 2172 2163 2150 2144
 1520 1520 1537 1617 1732 1840 1900 1954 1996 2120 2267 2328 2400 2448 2460 2465 2466 2429 2444 2486 2507 2545 2560 2597 2649 2580 2547 2512 2435 2510 2690 2773 2846 2865 2880 2890 2893 2913 2951 2985 3020 3033 2993 3022 2948 2860 2760 2668 2540 2540 2553 2528 2488 2450 2400 2360 2342 2294 2250 2260 2260 2260 2210 2187 2230 2253 2251 2251 2257 2227 2190 2138 2160 2230 2292 2347 2408 2460 2413 2380 2344 2325 2307 2256 2227 2194 2170 2168 2140 2110
 1659 1720 1726 1669 1707 1800 1870 1938 2000 2109 2248 2276 2340 2447 2492 2489 2490 2440 2458 2467 2516 2537 2585 2633 2660 2681 2680 2660 2660 2690 2740 2794 2865 2923 2930 2945 2960 2953 2995 3030 3069 3090 3080 3033 2948 2840 2727 2635 2633 2647 2626 2580 2492 2440 2396 2364 2324 2288 2300 2313 2325 2270 2199 2220 2274 2293 2290 2283 2268 2220 2176 2187 2187 2240 2335 2392 2460 2496 2430 2366 2330 2300 2275 2236 2214 2223 2205 2180 2160 2128
 1707 1771 2623 1808 1737 1779 1825 1893 1964 2100 2147 2270 2353 2447 2522 2525 2493 2464 2493 2480 2500 2544 2588 2610 2647 2672 2689 2720 2763 2793 2840 2850 2860 2900 2972 3000 3020 3020 3048 3080 3115 3135 3070 2986 2912 2800 2700 2708 2714 2690 2664 2595 2513 2460 2400 2380 2380 2370 2380 2387 2340 2300 2220 2288 2320 2336 2324 2289 2265 2209 2240 2260 2253 2292 2352 2440 2513 2510 2420 2369 2328 2300 2290 2269 2255 2241 2211 2186 2166 2145
 1720 1773 2350 1890 1887 1950 1945 1929 1983 2100 2182 2287 2371 2506 2523 2545 2520 2477 2512 2520 2520 2564 2573 2608 2630 2654 2688 2720 2760 2805 2868 2909 2927 2914 2940 3010 3055 3090 3120 3145 3181 3100 3007 2914 2820 2740 2740 2780 2774 2735 2673 2600 2540 2485 2470 2467 2447 2432 2440 2433 2360 2364 2280 2340 2372 2370 2312 2277 2267 2280 2310 2340 2330 2380 2410 2512 2546 2489 2450 2426 2400 2380 2346 2312 2252 2215 2189 2157 2140 2120
 1727 1770 2534 1907 1968 2044 2080 2073 2060 2100 2235 2300 2380 2523 2523 2555 2560 2497 2510 2564 2560 2557 2576 2592 2610 2646 2695 2720 2748 2777 2828 2904 2953 2983 2995 2992 3000 3105 3160 3189 3160 3020 2932 2827 2786 2827 2810 2843 2800 2720 2664 2625 2592 2567 2550 2530 2526 2492 2467 2412 2416 2409 2330 2406 2400 2367 2340 2353 2330 2350 2360 2400 2427 2473 2532 2575 2560 2535 2520 2484 2445 2427 2380 2300 2247 2247 2224 2175 2134 2100
 1744 1773 2840 1895 2000 2109 2184 2200 2230 2280 2340 2390 2395 2540 2544 2563 2565 2546 2508 2573 2620 2623 2589 2595 2600 2628 2660 2696 2732 2792 2847 2885 2932 3006 3033 3045 3080 3127 3180 3195 3100 2980 2910 2856 2913 2927 2910 2860 2773 2733 2713 2680 2652 2630 2620 2592 2560 2506 2460 2435 2453 2427 2406 2431 2410 2380 2440 2480 2420 2460 2440 2500 2560 2580 2620 2613 2610 2583 2550 2500 2470 2440 2410 2334 2277 2247 2220 2184 2154 2130
 1760 1780 1860 1889 1975 2110 2243 2287 2315 2354 2422 2489 2481 2543 2544 2574 2575 2565 2546 2595 2633 2660 2620 2630 2673 2680 2713 2700 2790 2807 2855 2900 2948 3000 3060 3086 3120 3153 3215 3200 3110 2987 2930 2932 2973 2973 2907 2853 2830 2800 2771 2734 2708 2680 2660 2620 2567 2510 2468 2472 2470 2430 2440 2447 2406 2428 2512 2568 2560 2532 2570 2620 2660 2667 2665 2652 2625 2580 2533 2489 2468 2443 2408 2340 2267 2220 2184 2160 2129 2107
 1754 1787 1860 1897 1968 2107 2268 2327 2390 2452 2507 2543 2526 2573 2550 2580 2585 2580 2560 2620 2668 2685 2660 2634 2720 2727 2767 2773 2830 2877 2912 2960 3006 3027 3053 3124 3163 3188 3250 3227 3100 3014 3030 3014 3027 3008 2948 2926 2894 2860 2815 2775 2754 2725 2680 2628 2580 2525 2510 2504 2485 2446 2462 2450 2418 2473 2570 2640 2630 2610 2680 2708 2725 2712 2685 2666 2630 2580 2549 2495 2455 2420 2380 2325 2255 2216 2198 2176 2150 2122
 1767 1800 1867 1905 1981 2080 2280 2367 2433 2520 2547 2569 2544 2600 2580 2570 2591 2586 2567 2600 2680 2693 2700 2692 2732 2789 2788 2823 2825 2889 2950 2991 3032 3065 3094 3116 3180 3224 3268 3200 3100 3056 3080 3070 3090 3060 3028 3006 2960 2897 2868 2827 2788 2760 2693 2660 2606 2580 2553 2527 2490 2473 2484 2452 2468 2487 2580 2680 2712 2708 2753 2770 2760 2709 2682 2662 2630 2586 2534 2473 2414 2387 2364 2320 2271 2237 2208 2177 2140 2106
 1785 2187 1884 1920 2006 2087 2280 2380 2463 2528 2565 2591 2572 2600 2600 2574 2604 2602 2587 2632 2680 2707 2740 2745 2765 2807 2820 2840 2876 2900 2948 2995 3033 3069 3113 3160 3200 3248 3280 3187 3111 3140 3140 3120 3147 3120 3100 3068 3025 2960 2910 2856 2812 2773 2740 2700 2645 2594 2552 2508 2498 2525 2490 2494 2530 2530 2587 2700 2792 2780 2823 2796 2760 2724 2683 2653 2620 2572 2520 2460 2433 2390 2317 2296 2275 2253 2223 2180 2140 2140
 2106 1880 1920 1960 2013 2110 2280 2380 2473 2529 2584 2605 2611 2596 2600 2588 2613 2615 2593 2620 2665 2692 2700 2700 2750 2792 2820 2820 2840 2888 2946 2984 3032 3092 3133 3168 3214 3272 3280 3200 3188 3200 3208 3212 3208 3193 3166 3120 3073 3020 2968 2906 2855 2813 2766 2692 2673 2640 2580 2517 2560 2567 2520 2560 2580 2593 2600 2720 2847 2844 2845 2797 2763 2720 2683 2640 2603 2575 2545 2487 2448 2395 2344 2292 2263 2242 2214 2180 2183 2162
 2840 1907 1956 1988 2015 2120 2280 2380 2483 2536 2603 2612 2618 2621 2598 2600 2597 2622 2620 2626 2648 2649 2657 2672 2694 2709 2753 2795 2840 2888 2928 2984 3030 3080 3127 3175 3225 3288 3320 3250 3244 3242 3242 3220 3206 3206 3201 3168 3114 3055 2992 2945 2880 2810 2771 2770 2730 2660 2573 2592 2620 2620 2630 2680 2707 2690 2680 2840 2905 2882 2844 2797 2756 2720 2683 2652 2627 2588 2535 2488 2440 2400 2366 2297 2255 2233 2220 2223 2193 2160
 1900 1940 1971 1994 2017 2120 2280 2380 2500 2570 2605 2620 2627 2628 2614 2613 2623 2614 2617 2618 2619 2680 2710 2706 2753 2800 2816 2849 2873 2880 2906 2966 3007 3067 3112 3180 3240 3310 3312 3249 3211 3201 3209 3203 3220 3218 3202 3193 3140 3076 3020 2955 2880 2827 2840 2832 2780 2620 2620 2700 2720 2720 2780 2832 2840 2840 2870 2928 2897 2867 2831 2793 2757 2729 2694 2667 2637 2594 2555 2510 2452 2409 2355 2295 2268 2266 2260 2208 2174 2140
 1925 1966 1985 1998 2020 2116 2267 2340 2505 2570 2608 2626 2637 2636 2635 2640 2653 2640 2651 2660 2694 2729 2760 2760 2809 2836 2853 2871 2907 2945 2950 2985 2994 3052 3115 3173 3232 3320 3280 3230 3212 3203 3201 3202 3215 3208 3202 3187 3133 3068 3006 2935 2913 2886 2886 2840 2780 2680 2700 2792 2830 2880 2870 2910 2960 2948 2963 2940 2884 2840 2805 2778 2752 2726 2694 2674 2650 2623 2570 2507 2428 2385 2314 2279 2283 2281 2235 2196 2195 2180
 1914 1950 1980 1993 2029 2107 2260 2380 2513 2585 2616 2641 2645 2646 2655 2670 2681 2675 2680 2696 2723 2740 2770 2794 2825 2863 2884 2900 2943 2980 3005 3040 3063 3090 3134 3172 3232 3303 3260 3210 3202 3204 3202 3204 3217 3218 3214 3160 3105 3054 3033 2984 2955 2960 2970 2943 2780 2826 2852 2900 2960 3010 3008 3013 3013 2984 2964 2906 2868 2825 2786 2763 2738 2717 2690 2668 2640 2616 2560 2470 2397 2370 2340 2324 2284 2257 2247 2253 2250 2235
 1960 1967 1987 2034 2081 2183 2270 2384 2509 2575 2611 2632 2643 2650 2663 2651 2685 2688 2693 2703 2720 2737 2760 2793 2820 2866 2887 2904 2930 2953 2980 3013 3063 3100 3160 3195 3240 3280 3206 3237 3220 3212 3203 3215 3245 3246 3227 3207 3190 3150 3093 3055 3007 3090 3090 3010 2880 2910 2960 3010 3060 3086 3063 3033 2987 2945 2925 2895 2873 2833 2787 2760 2737 2720 2684 2655 2628 2600 2540 2492 2467 2420 2377 2330 2313 2295 2307 2307 2296 2285
 1960 1992 2033 2100 2200 2276 2324 2387 2503 2567 2607 2616 2629 2638 2652 2493 2694 2696 2700 2725 2737 2750 2763 2790 2835 2860 2840 2832 2853 2880 2920 2983 3035 3088 3148 3195 3260 3267 3208 3248 3234 3212 3200 3243 3251 3257 3274 3287 3286 3272 3227 3192 3113 3192 3205 3092 2980 3067 3073 3101 3100 3060 3020 3000 2964 2916 2876 2887 2867 2824 2780 2763 2736 2713 2677 2671 2662 2636 2610 2560 2500 2468 2420 2400 2400 2380 2373 2365 2360 2353
 1920 1975 2085 2156 2268 2317 2400 2425 2504 2570 2611 2624 2626 2634 2654 2693 2704 2705 2720 2740 2742 2750 2764 2795 2826 2795 2800 2847 2876 2913 2930 3000 3053 3120 3168 3220 3280 3220 3220 3215 3214 3203 3220 3260 3274 3295 3330 3340 3324 3293 3282 3263 3240 3252 3240 3203 3143 3132 3122 3075 3030 3000 2980 2960 2920 2889 2837 2864 2863 2807 2777 2763 2740 2720 2693 2684 2663 2640 2616 2590 2560 2530 2493 2470 2470 2447 2436 2427 2427 2422
 1940 1965 2040 2175 2287 2400 2470 2528 2540 2552 2602 2621 2626 2635 2653 2675 2693 2708 2720 2729 2730 2742 2757 2785 2780 2780 2835 2868 2900 2960 3013 3047 3072 3128 3184 3253 3290 3247 3255 3230 3220 3240 3285 3300 3280 3295 3293 3288 3260 3244 3220 3215 3215 3200 3186 3160 3135 3116 3072 3060 3024 2960 2900 2900 2893 2869 2827 2824 2829 2820 2778 2762 2742 2725 2704 2677 2653 2629 2595 2560 2547 2530 2546 2520 2496 2482 2466 2443 2415 2385
 2020 1996 2030 2120 2290 2400 2513 2573 2583 2580 2559 2590 2590 2598 2620 2637 2660 2702 2698 2700 2703 2707 2710 2720 2737 2785 2845 2890 2940 2987 3040 3087 3135 3135 3187 3247 3300 3315 3304 3268 3263 3265 3230 3245 3233 3256 3245 3240 3224 3192 3187 3183 3154 3140 3127 3108 3090 3080 3013 3007 2988 2967 2915 2866 2828 2828 2790 2776 2789 2826 2784 2749 2723 2700 2691 2667 2640 2613 2589 2548 2500 2497 2498 2480 2470 2467 2451 2425 2387 2357
 2116 2109 2040 2110 2290 2405 2520 2581 2585 2589 2593 2590 2596 2621 2630 2645 2645 2660 2677 2679 2679 2697 2700 2713 2780 2808 2850 2877 2947 2994 3040 3110 3173 3206 3208 3253 3291 3320 3270 3210 3180 3200 3168 3191 3184 3210 3200 3189 3187 3149 3140 3135 3107 3087 3080 3067 3047 3044 3000 2940 2940 2930 2895 2855 2843 2770 2750 2747 2780 2810 2780 2748 2717 2684 2666 2645 2620 2580 2540 2540 2516 2469 2476 2460 2443 2434 2435 2407 2360 2320
 2200 2208 2107 2153 2293 2400 2510 2566 2577 2587 2596 2598 2603 2613 2629 2647 2660 2665 2673 2681 2689 2715 2743 2718 2755 2777 2795 2830 2904 2970 3040 3080 3130 3186 3235 3280 3286 3305 3253 3207 3120 3153 3127 3152 3147 3164 3153 3145 3151 3123 3094 3092 3066 3047 3027 3010 2985 2995 2968 2913 2850 2872 2883 2840 2800 2740 2720 2708 2735 2752 2767 2736 2706 2685 2647 2623 2598 2576 2534 2487 2483 2460 2427 2437 2423 2404 2405 2380 2320 2288
 2280 2290 2280 2252 2317 2412 2527 2574 2594 2596 2592 2596 2609 2622 2630 2639 2662 2670 2682 2688 2694 2708 2760 2769 2782 2800 2829 2860 2920 2952 3020 3065 3088 3153 3220 3244 3276 3254 3210 3167 3100 3087 3080 3120 3127 3105 3097 3100 3113 3075 3056 3063 3043 2996 2980 2948 2913 2927 2920 2900 2812 2820 2845 2824 2770 2726 2688 2653 2693 2705 2736 2716 2672 2660 2637 2604 2568 2547 2512 2480 2433 2444 2396 2397 2395 2376 2368 2347 2313 2274
 2310 2335 2335 2297 2365 2427 2524 2571 2590 2592 2588 2593 2604 2623 2629 2643 2651 2660 2677 2683 2693 2723 2746 2745 2755 2772 2797 2846 2890 2952 2985 3010 3083 3140 3180 3200 3220 3196 3165 3107 3086 3045 3047 3094 3089 3082 3075 3066 3070 3040 3013 3013 3008 2975 2951 2920 2860 2840 2840 2840 2790 2785 2795 2785 2750 2680 2649 2620 2613 2650 2700 2688 2653 2616 2614 2592 2560 2525 2474 2452 2425 2385 2370 2373 2376 2365 2325 2300 2285 2254
 2366 2400 2393 2373 2400 2475 2527 2540 2563 2560 2577 2600 2593 2598 2611 2620 2629 2636 2648 2657 2672 2700 2728 2747 2765 2777 2800 2851 2875 2913 2940 3005 3072 3095 3140 3160 3170 3140 3120 3075 3052 3015 3047 3060 3056 3048 3032 3031 3014 3008 2967 2965 2955 2940 2936 2873 2826 2740 2760 2784 2754 2730 2747 2725 2706 2675 2613 2620 2577 2609 2653 2655 2640 2580 2540 2552 2540 2497 2477 2448 2394 2366 2340 2340 2348 2343 2324 2274 2246 2228
 2394 2444 2435 2412 2480 2536 2584 2587 2575 2565 2591 2604 2610 2622 2621 2626 2644 2661 2663 2659 2659 2680 2710 2735 2747 2770 2780 2800 2846 2886 2927 2983 3026 3054 3072 3100 3095 3075 3065 3045 3010 2996 3043 3008 3015 3000 2989 2997 2977 2976 2914 2900 2911 2907 2887 2860 2803 2720 2680 2710 2720 2676 2690 2675 2671 2663 2610 2569 2560 2586 2620 2609 2600 2560 2487 2500 2500 2477 2464 2433 2400 2368 2315 2300 2308 2304 2300 2240 2199 2195
 2420 2479 2472 2518 2580 2582 2598 2604 2594 2593 2580 2579 2595 2603 2620 2634 2655 2663 2671 2680 2686 2693 2703 2716 2740 2766 2791 2834 2866 2877 2900 2940 2954 3010 3008 3055 3047 3028 3026 2993 2973 3008 2990 2952 2968 2965 2960 2965 2945 2928 2886 2852 2867 2864 2834 2826 2803 2730 2668 2640 2665 2640 2652 2640 2627 2613 2597 2565 2520 2548 2580 2560 2564 2533 2475 2428 2450 2453 2445 2407 2375 2348 2300 2272 2269 2269 2255 2235 2188 2180
 2472 2588 2580 2574 2606 2602 2606 2612 2608 2601 2591 2597 2591 2617 2631 2644 2657 2664 2665 2676 2687 2698 2708 2719 2743 2758 2788 2820 2845 2840 2869 2880 2926 2930 2985 2996 3000 2985 2983 2957 2960 2977 2965 2915 2927 2925 2925 2915 2920 2880 2860 2815 2820 2815 2800 2785 2780 2740 2675 2607 2600 2600 2620 2590 2592 2580 2576 2563 2528 2494 2530 2495 2505 2497 2471 2410 2395 2412 2394 2380 2347 2305 2276 2220 2236 2247 2200 2205 2176 2148
 2570 2641 2620 2607 2612 2622 2618 2623 2616 2599 2598 2615 2600 2610 2631 2640 2649 2650 2654 2667 2682 2693 2705 2715 2733 2750 2770 2788 2800 2826 2816 2869 2873 2900 2952 2956 2970 2936 2937 2940 2946 2940 2925 2890 2890 2886 2886 2880 2887 2874 2826 2780 2753 2760 2768 2752 2744 2693 2650 2610 2520 2540 2570 2552 2563 2560 2548 2530 2520 2480 2480 2475 2460 2472 2445 2423 2360 2365 2360 2348 2320 2280 2230 2180 2172 2223 2195 2150 2160 2115
 2600 2646 2636 2636 2640 2638 2631 2629 2621 2621 2599 2620 2615 2607 2624 2630 2640 2638 2655 2667 2678 2691 2703 2695 2706 2717 2733 2756 2775 2783 2813 2860 2836 2872 2895 2915 2912 2898 2941 2913 2904 2904 2887 2854 2880 2854 2850 2836 2840 2840 2826 2785 2713 2707 2714 2700 2706 2687 2620 2570 2513 2485 2528 2517 2531 2520 2523 2500 2490 2473 2434 2460 2406 2436 2420 2371 2360 2327 2300 2296 2285 2264 2240 2190 2097 2147 2175 2133 2100 2100
 2660 2656 2676 2662 2653 2649 2642 2631 2619 2621 2613 2622 2613 2599 2614 2627 2634 2644 2658 2669 2677 2688 2678 2697 2715 2730 2742 2757 2764 2773 2789 2800 2820 2862 2868 2865 2880 2920 2920 2895 2856 2876 2860 2814 2844 2810 2800 2792 2795 2775 2775 2760 2713 2660 2675 2670 2645 2613 2606 2570 2516 2465 2494 2477 2492 2485 2487 2469 2463 2465 2425 2425 2380 2390 2380 2365 2320 2307 2290 2249 2255 2224 2195 2150 2080 2086 2125 2115 2070 2060
 2680 2672 2686 2677 2668 2657 2649 2631 2632 2628 2617 2621 2616 2605 2621 2628 2635 2644 2655 2661 2666 2667 2675 2693 2710 2730 2754 2766 2755 2749 2768 2786 2815 2831 2830 2845 2886 2884 2884 2874 2826 2834 2814 2788 2793 2780 2776 2750 2753 2744 2720 2707 2680 2650 2620 2635 2605 2565 2575 2547 2500 2427 2460 2440 2456 2463 2445 2440 2425 2435 2424 2368 2346 2295 2340 2347 2312 2260 2253 2245 2210 2192 2175 2147 2087 2031 2066 2073 2060 2013
 2614 2688 2694 2687 2683 2670 2647 2646 2651 2640 2619 2621 2623 2618 2618 2624 2632 2640 2645 2650 2659 2670 2685 2692 2700 2723 2770 2780 2764 2738 2764 2772 2776 2785 2805 2852 2864 2863 2844 2849 2814 2792 2787 2774 2754 2763 2740 2695 2700 2700 2673 2666 2630 2600 2587 2593 2577 2540 2510 2508 2468 2420 2412 2430 2406 2433 2400 2400 2380 2395 2392 2360 2310 2278 2293 2310 2285 2263 2200 2204 2190 2147 2130 2128 2107 2020 2000 2013 2030 2013
 2490 2625 2700 2692 2683 2658 2672 2670 2658 2634 2626 2629 2628 2621 2614 2619 2626 2632 2639 2648 2659 2671 2681 2690 2700 2730 2772 2760 2732 2731 2743 2760 2750 2766 2790 2820 2820 2825 2800 2808 2794 2765 2760 2754 2740 2715 2700 2673 2640 2655 2614 2620 2580 2530 2564 2546 2534 2510 2450 2450 2440 2395 2387 2400 2366 2391 2363 2377 2336 2345 2353 2335 2324 2285 2251 2268 2250 2240 2193 2172 2172 2133 2108 2077 2100 2048 1995 1948 1984 1980
 2460 2587 2700 2688 2676 2681 2683 2676 2665 2639 2635 2637 2629 2620 2615 2616 2620 2629 2638 2642 2658 2668 2676 2686 2700 2726 2732 2720 2700 2716 2730 2733 2709 2755 2771 2778 2780 2790 2777 2780 2767 2740 2711 2716 2700 2680 2667 2664 2613 2592 2594 2553 2520 2505 2507 2500 2489 2453 2432 2386 2380 2356 2382 2355 2317 2335 2313 2350 2320 2285 2300 2305 2276 2273 2260 2212 2209 2186 2180 2133 2149 2130 2080 2054 2071 2060 2000 1927 1920 1950
 2460 2547 2670 2697 2682 2684 2683 2676 2666 2640 2641 2642 2634 2620 2616 2616 2620 2624 2633 2638 2654 2664 2669 2677 2683 2690 2697 2700 2685 2694 2720 2705 2693 2720 2747 2756 2755 2755 2745 2743 2738 2729 2695 2675 2672 2656 2660 2620 2597 2565 2553 2520 2487 2490 2468 2457 2469 2444 2400 2340 2326 2353 2334 2300 2307 2273 2289 2300 2286 2252 2269 2271 2235 2236 2227 2206 2165 2160 2140 2134 2096 2093 2083 2040 2032 2040 2012 1940 1889 1894
 2380 2480 2652 2700 2690 2687 2683 2675 2663 2650 2646 2648 2639 2628 2620 2620 2621 2627 2632 2645 2652 2655 2661 2668 2670 2671 2676 2680 2670 2668 2684 2675 2655 2693 2708 2723 2723 2713 2714 2713 2716 2700 2680 2647 2640 2623 2605 2594 2580 2564 2515 2490 2472 2476 2452 2415 2447 2440 2392 2345 2296 2320 2324 2276 2280 2255 2254 2247 2236 2220 2232 2220 2196 2193 2184 2183 2160 2116 2096 2100 2080 2060 2064 2043 1991 2000 1991 1960 1914 1855
 2380 2480 2580 2693 2694 2689 2682 2671 2659 2654 2656 2654 2647 2644 2643 2632 2628 2628 2630 2640 2643 2650 2662 2660 2658 2657 2665 2667 2660 2660 2663 2651 2620 2677 2676 2688 2683 2680 2677 2683 2673 2656 2643 2637 2608 2588 2576 2576 2554 2540 2520 2485 2455 2456 2414 2388 2405 2395 2382 2346 2322 2278 2294 2286 2255 2229 2213 2200 2196 2185 2196 2180 2165 2152 2147 2130 2143 2092 2093 2057 2065 2029 2032 2013 1973 1968 1969 1960 1928 1860
 2360 2460 2580 2700 2698 2692 2682 2666 2657 2662 2664 2663 2661 2652 2640 2634 2631 2627 2632 2630 2632 2640 2654 2647 2639 2639 2651 2653 2630 2661 2651 2631 2600 2650 2652 2660 2657 2653 2655 2654 2637 2626 2616 2609 2596 2558 2557 2537 2540 2515 2483 2482 2456 2433 2390 2368 2376 2380 2353 2343 2315 2280 2240 2230 2247 2240 2215 2167 2147 2140 2160 2134 2100 2105 2087 2075 2100 2054 2060 2035 2020 2020 1977 1980 1970 1920 1930 1915 1896 1870
 2360 2393 2540 2690 2709 2704 2680 2672 2668 2669 2670 2666 2661 2644 2636 2632 2632 2635 2634 2634 2632 2644 2642 2646 2641 2638 2645 2643 2599 2643 2635 2608 2598 2637 2633 2635 2629 2629 2633 2635 2620 2600 2590 2580 2558 2549 2536 2526 2517 2503 2467 2454 2443 2404 2384 2360 2342 2360 2329 2302 2300 2272 2242 2206 2170 2200 2187 2168 2120 2120 2094 2080 2078 2064 2015 2014 2020 2028 2000 2020 1980 1985 1982 1940 1952 1927 1895 1883 1873 1874
 2310 2410 2480 2680 2723 2721 2707 2692 2684 2676 2667 2664 2659 2656 2643 2636 2636 2637 2637 2637 2638 2657 2673 2660 2649 2636 2641 2635 2597 2625 2623 2593 2593 2618 2614 2618 2610 2613 2616 2620 2595 2580 2572 2562 2545 2542 2524 2512 2500 2483 2457 2440 2407 2377 2353 2340 2330 2312 2320 2296 2279 2266 2242 2220 2140 2107 2120 2120 2094 2085 2087 2067 2080 2040 2004 2002 1999 2000 1932 1930 1920 1943 1940 1927 1917 1902 1885 1865 1868 1853
 2347 2420 2500 2700 2737 2727 2715 2701 2674 2667 2658 2653 2651 2654 2650 2643 2646 2647 2640 2644 2659 2712 2724 2710 2660 2635 2632 2628 2604 2594 2580 2575 2600 2596 2593 2597 2592 2597 2593 2597 2576 2568 2552 2542 2520 2517 2503 2480 2454 2445 2427 2407 2376 2354 2334 2322 2332 2316 2289 2284 2275 2263 2244 2217 2180 2106 2073 2060 2072 2064 2065 2031 2040 2020 1975 1975 1937 1927 1910 1875 1905 1932 1903 1890 1889 1890 1877 1852 1862 1837
 2363 2420 2520 2700 2738 2726 2714 2701 2686 2660 2651 2640 2640 2650 2658 2654 2659 2655 2655 2654 2692 2735 2740 2735 2692 2634 2619 2618 2609 2597 2586 2577 2558 2570 2574 2572 2572 2575 2568 2573 2555 2549 2533 2512 2500 2488 2480 2453 2413 2392 2396 2384 2358 2336 2314 2302 2300 2289 2285 2266 2250 2248 2234 2210 2180 2145 2092 2020 2045 2034 2044 1989 1972 1980 1962 1949 1920 1890 1873 1840 1880 1893 1874 1848 1846 1873 1862 1836 1842 1828
 2400 2428 2547 2692 2738 2723 2711 2699 2689 2673 2666 2655 2639 2645 2650 2653 2652 2648 2643 2646 2687 2723 2740 2724 2675 2624 2611 2602 2599 2594 2589 2584 2560 2561 2565 2557 2546 2552 2535 2543 2526 2520 2515 2489 2474 2457 2456 2431 2390 2366 2367 2358 2344 2311 2285 2273 2255 2247 2253 2262 2248 2229 2214 2193 2172 2144 2094 2010 2000 2016 2023 1983 1931 1933 1945 1940 1914 1880 1858 1820 1825 1840 1848 1832 1796 1844 1860 1820 1808 1788
 2426 2460 2540 2720 2727 2716 2710 2703 2701 2695 2678 2662 2645 2638 2639 2642 2647 2644 2635 2642 2647 2666 2692 2697 2660 2618 2606 2596 2591 2591 2588 2583 2567 2538 2527 2536 2529 2526 2500 2523 2504 2484 2472 2460 2447 2440 2420 2416 2384 2350 2347 2342 2323 2300 2270 2248 2226 2216 2215 2231 2242 2228 2205 2166 2133 2106 2067 2010 1970 2000 1986 1980 1940 1906 1916 1912 1903 1870 1846 1813 1800 1820 1808 1824 1780 1809 1840 1830 1813 1803
 2453 2490 2592 2720 2714 2707 2701 2701 2701 2697 2687 2676 2662 2642 2639 2639 2640 2638 2628 2628 2629 2637 2648 2656 2644 2615 2601 2584 2584 2587 2585 2580 2569 2555 2526 2498 2507 2505 2487 2498 2484 2456 2444 2436 2420 2413 2384 2387 2364 2334 2308 2317 2303 2287 2263 2236 2210 2178 2183 2200 2217 2210 2200 2165 2140 2103 2047 2000 1934 1947 1935 1948 1910 1871 1880 1876 1870 1836 1815 1789 1760 1783 1784 1792 1776 1732 1795 1806 1789 1784
 2487 2540 2595 2700 2712 2710 2702 2689 2688 2689 2684 2677 2672 2663 2658 2652 2643 2633 2618 2609 2610 2618 2618 2624 2637 2612 2587 2575 2581 2585 2583 2576 2564 2549 2536 2504 2472 2482 2472 2474 2464 2443 2423 2411 2395 2373 2357 2357 2336 2309 2285 2288 2278 2266 2256 2229 2203 2163 2158 2168 2174 2175 2167 2136 2115 2088 2035 1990 1935 1895 1920 1900 1894 1867 1831 1835 1810 1797 1786 1775 1737 1762 1757 1769 1751 1710 1720 1745 1753 1753
 2546 2580 2620 2705 2721 2718 2704 2680 2678 2679 2677 2677 2680 2680 2676 2670 2662 2646 2626 2608 2594 2602 2603 2604 2611 2596 2576 2572 2582 2581 2581 2563 2550 2533 2517 2492 2457 2464 2462 2444 2445 2436 2414 2385 2371 2354 2328 2324 2311 2290 2270 2255 2264 2240 2238 2223 2203 2183 2140 2143 2154 2160 2140 2122 2092 2065 2024 1975 1940 1885 1877 1856 1860 1865 1817 1800 1789 1783 1772 1756 1716 1732 1723 1743 1714 1700 1666 1694 1720 1726
 2580 2633 2675 2721 2722 2715 2696 2691 2684 2671 2668 2670 2678 2680 2680 2677 2658 2640 2617 2602 2589 2580 2591 2591 2583 2574 2559 2560 2574 2571 2560 2547 2538 2520 2498 2482 2457 2425 2440 2426 2420 2416 2390 2367 2344 2327 2295 2291 2280 2268 2256 2229 2247 2240 2220 2207 2184 2175 2160 2127 2126 2135 2125 2105 2074 2048 2017 1974 1935 1886 1846 1852 1815 1840 1840 1789 1760 1757 1755 1735 1700 1690 1695 1710 1668 1616 1627 1649 1660 1673
 2571 2640 2706 2723 2715 2707 2723 2692 2679 2674 2668 2658 2656 2653 2663 2671 2647 2611 2597 2587 2581 2566 2581 2584 2578 2568 2556 2556 2563 2553 2554 2535 2523 2504 2486 2466 2455 2429 2396 2412 2392 2388 2372 2353 2329 2296 2270 2270 2253 2248 2232 2200 2230 2229 2194 2194 2171 2151 2135 2115 2076 2114 2107 2087 2063 2024 1987 1955 1900 1884 1853 1817 1798 1796 1816 1800 1758 1735 1727 1704 1690 1655 1660 1667 1625 1588 1578 1620 1624 1629
 2585 2660 2721 2723 2736 2737 2700 2689 2680 2675 2668 2666 2662 2654 2620 2620 2620 2596 2568 2560 2545 2560 2570 2569 2568 2563 2546 2538 2550 2537 2525 2520 2509 2491 2472 2443 2432 2429 2404 2380 2380 2358 2352 2336 2312 2285 2263 2240 2240 2227 2220 2185 2215 2212 2193 2169 2147 2124 2095 2083 2040 2088 2085 2058 2036 1995 1964 1937 1897 1875 1863 1845 1823 1788 1776 1783 1769 1747 1700 1688 1670 1640 1640 1681 1670 1640 1575 1560 1573 1588
 2620 2673 2726 2736 2740 2748 2715 2680 2668 2666 2667 2663 2662 2662 2657 2624 2589 2567 2549 2533 2520 2537 2554 2549 2547 2540 2533 2527 2531 2522 2504 2493 2483 2477 2465 2447 2420 2400 2400 2386 2358 2340 2325 2305 2297 2274 2250 2225 2217 2200 2185 2167 2160 2183 2166 2143 2125 2107 2075 2052 2018 2049 2048 2029 1996 1973 1949 1925 1892 1864 1848 1840 1820 1785 1755 1750 1754 1749 1729 1700 1660 1620 1617 1645 1665 1620 1575 1544 1538 1573
 2648 2700 2740 2749 2764 2768 2720 2680 2615 2611 2625 2628 2630 2635 2630 2610 2587 2560 2536 2505 2505 2522 2529 2533 2528 2518 2523 2520 2509 2505 2493 2472 2472 2460 2443 2437 2428 2409 2378 2366 2363 2348 2323 2284 2269 2248 2232 2214 2191 2184 2136 2140 2120 2157 2143 2117 2102 2088 2064 2031 2013 2006 2010 1995 1980 1960 1934 1912 1877 1852 1834 1823 1802 1788 1763 1740 1719 1733 1722 1700 1665 1624 1591 1608 1626 1626 1600 1557 1520 1553
 2680 2747 2760 2765 2789 2800 2730 2690 2615 2564 2575 2580 2580 2580 2586 2586 2553 2528 2523 2506 2488 2498 2510 2522 2520 2497 2506 2500 2497 2489 2480 2465 2454 2446 2434 2420 2410 2421 2393 2367 2343 2332 2315 2277 2255 2233 2207 2186 2145 2133 2106 2103 2088 2123 2123 2107 2077 2060 2043 2017 1996 1983 1985 1968 1969 1944 1916 1896 1870 1840 1828 1816 1802 1784 1755 1734 1717 1697 1690 1676 1654 1620 1575 1556 1585 1592 1593 1565 1520 1516
 2746 2783 2806 2800 2820 2790 2729 2680 2611 2566 2533 2520 2520 2524 2540 2533 2507 2486 2477 2473 2464 2480 2502 2509 2500 2488 2483 2475 2469 2470 2465 2453 2437 2431 2411 2380 2402 2408 2390 2360 2335 2306 2300 2271 2244 2222 2203 2157 2120 2080 2066 2045 2020 2060 2083 2088 2060 2029 2008 1998 1982 1967 1960 1937 1948 1920 1894 1877 1854 1837 1827 1816 1800 1780 1755 1737 1722 1680 1647 1633 1620 1600 1556 1540 1562 1569 1569 1554 1520 1492
 2766 2775 2797 2840 2843 2773 2720 2653 2620 2580 2528 2516 2493 2486 2497 2508 2489 2460 2448 2443 2449 2458 2480 2485 2474 2471 2464 2452 2447 2449 2450 2440 2420 2404 2395 2372 2383 2382 2370 2354 2326 2297 2269 2260 2240 2197 2188 2163 2126 2100 2066 2025 1988 2005 2013 2060 2045 2025 1996 1976 1968 1954 1942 1927 1912 1893 1877 1858 1840 1831 1822 1814 1800 1782 1758 1742 1727 1710 1660 1598 1583 1557 1536 1520 1540 1546 1549 1537 1513 1492
 2771 2777 2797 2860 2844 2773 2730 2693 2630 2571 2540 2499 2491 2473 2483 2501 2473 2446 2428 2420 2435 2439 2448 2452 2451 2448 2437 2444 2417 2423 2427 2423 2404 2384 2380 2362 2344 2340 2346 2335 2324 2291 2264 2225 2220 2193 2163 2154 2136 2113 2085 2015 1992 1937 1955 2006 2025 2004 1985 1962 1940 1942 1943 1929 1897 1886 1869 1848 1841 1834 1824 1812 1797 1775 1758 1744 1731 1718 1703 1660 1590 1525 1522 1497 1515 1523 1532 1520 1509 1492
 2777 2784 2807 2860 2848 2780 2762 2680 2634 2587 2547 2517 2497 2482 2455 2468 2456 2444 2422 2400 2425 2426 2425 2426 2418 2427 2420 2417 2400 2404 2403 2400 2387 2365 2357 2347 2327 2317 2317 2303 2303 2284 2260 2237 2195 2164 2153 2129 2126 2108 2080 2034 1985 1914 1900 1965 1980 1973 1951 1938 1940 1928 1920 1913 1888 1873 1860 1849 1834 1826 1822 1811 1790 1762 1747 1736 1722 1697 1688 1640 1600 1516 1483 1490 1480 1505 1505 1502 1496 1475
 2792 2815 2840 2881 2860 2820 2780 2750 2690 2631 2580 2540 2517 2504 2480 2446 2429 2430 2420 2398 2407 2413 2400 2402 2406 2398 2402 2402 2392 2380 2373 2372 2360 2344 2332 2320 2307 2297 2283 2283 2270 2265 2250 2228 2203 2167 2133 2109 2087 2086 2060 2033 2000 1935 1862 1906 1935 1940 1932 1915 1915 1921 1906 1865 1863 1854 1837 1837 1827 1821 1805 1795 1783 1753 1736 1726 1713 1701 1660 1624 1589 1553 1495 1474 1467 1470 1483 1458 1470 1467
 2816 2860 2884 2885 2875 2828 2791 2752 2705 2636 2607 2574 2554 2529 2490 2451 2424 2407 2407 2396 2395 2403 2391 2387 2390 2383 2378 2384 2385 2364 2348 2343 2340 2327 2304 2303 2283 2273 2240 2240 2234 2229 2223 2203 2176 2160 2142 2105 2066 2063 2040 2020 1980 1925 1830 1820 1873 1880 1910 1895 1885 1892 1883 1853 1828 1848 1824 1805 1804 1797 1800 1780 1770 1752 1725 1718 1705 1701 1688 1660 1624 1580 1540 1500 1475 1454 1437 1444 1463 1457
 2840 2890 2886 2868 2852 2790 2764 2690 2620 2590 2560 2528 2500 2487 2483 2444 2414 2390 2388 2382 2383 2393 2382 2374 2371 2360 2362 2359 2355 2340 2325 2324 2316 2307 2294 2274 2265 2250 2228 2196 2205 2197 2185 2165 2144 2125 2120 2096 2064 2032 2020 2012 1970 1926 1830 1777 1807 1827 1867 1871 1870 1874 1856 1848 1807 1829 1827 1790 1752 1760 1753 1756 1752 1742 1724 1716 1702 1691 1678 1670 1655 1620 1580 1547 1520 1476 1444 1418 1420 1444
 2880 2897 2887 2852 2828 2792 2720 2650 2580 2533 2500 2473 2452 2440 2440 2435 2407 2384 2360 2360 2371 2380 2372 2364 2358 2350 2350 2348 2343 2330 2322 2293 2292 2284 2278 2264 2238 2228 2211 2180 2176 2165 2150 2131 2117 2095 2077 2060 2052 2040 2010 1980 1967 1944 1900 1810 1756 1786 1820 1840 1852 1843 1836 1829 1806 1804 1823 1804 1768 1715 1716 1726 1717 1723 1726 1721 1706 1686 1673 1665 1662 1645 1620 1576 1549 1505 1468 1436 1407 1398
 2900 2878 2865 2850 2807 2780 2700 2627 2567 2525 2460 2420 2398 2388 2390 2377 2376 2369 2343 2340 2366 2366 2358 2351 2342 2338 2334 2327 2320 2314 2310 2293 2265 2260 2257 2244 2234 2200 2189 2166 2138 2140 2127 2100 2089 2072 2051 2027 2017 2017 2014 1968 1937 1935 1906 1828 1740 1707 1750 1787 1793 1813 1814 1793 1796 1777 1800 1777 1750 1725 1684 1694 1689 1703 1700 1714 1704 1673 1664 1643 1637 1640 1632 1615 1577 1548 1505 1467 1437 1425
 2898 2882 2855 2836 2800 2740 2675 2610 2553 2500 2456 2443 2408 2380 2356 2349 2349 2347 2337 2340 2351 2347 2345 2341 2326 2319 2312 2306 2304 2303 2293 2284 2260 2235 2236 2227 2208 2193 2164 2163 2144 2105 2090 2080 2060 2043 2040 2011 1994 1989 1988 1964 1920 1900 1900 1836 1700 1728 1680 1715 1730 1748 1787 1777 1766 1776 1757 1763 1731 1709 1660 1675 1663 1671 1670 1688 1689 1653 1646 1635 1600 1605 1616 1622 1616 1580 1556 1525 1505 1456
 2880 2881 2857 2807 2784 2727 2660 2600 2568 2520 2491 2454 2413 2373 2354 2339 2334 2330 2322 2330 2330 2325 2320 2317 2313 2307 2298 2289 2287 2278 2282 2238 2228 2220 2217 2208 2183 2170 2152 2134 2132 2108 2073 2040 2036 2018 2014 2002 1985 1963 1962 1945 1920 1878 1834 1823 1766 1753 1712 1657 1660 1700 1755 1747 1738 1757 1748 1720 1729 1711 1680 1638 1649 1636 1640 1657 1663 1640 1628 1617 1591 1574 1580 1596 1617 1607 1584 1556 1532 1507
 2851 2844 2834 2823 2804 2754 2714 2680 2614 2566 2540 2500 2450 2406 2360 2334 2321 2320 2313 2322 2315 2313 2308 2302 2300 2295 2282 2275 2272 2270 2267 2235 2218 2205 2191 2185 2169 2148 2125 2098 2103 2087 2057 2018 2005 2005 1996 1980 1960 1943 1933 1928 1900 1880 1820 1808 1770 1756 1732 1690 1634 1640 1710 1728 1716 1733 1725 1700 1692 1680 1668 1633 1635 1628 1615 1636 1628 1634 1608 1600 1578 1569 1554 1575 1602 1606 1602 1575 1548 1528
