ncols        40
nrows        40
xllcorner    524000.000000000000
yllcorner    1106000.000000000000
cellsize     100.000000000000
NODATA_value  -32767
 2430 2430 2463 2447 2354 2303 2300 2260 2315 2400 2480 2607 2660 2660 2744 2714 2694 2752 2760 2765 2740 2800 2827 2805 2835 2885 2891 2793 2657 2532 2472 2400 2347 2376 2357 2330 2320 2228 2243 2245
 2460 2448 2489 2492 2428 2348 2328 2280 2334 2413 2520 2670 2727 2700 2740 2772 2727 2776 2815 2820 2840 2820 2875 2848 2885 2930 2880 2667 2590 2500 2420 2359 2424 2393 2376 2360 2328 2285 2271 2240
 2474 2495 2496 2547 2510 2420 2350 2298 2354 2440 2570 2714 2763 2764 2793 2805 2780 2840 2868 2873 2895 2892 2920 2915 2948 2928 2800 2660 2570 2480 2393 2448 2450 2420 2388 2373 2348 2300 2265 2223
 2485 2514 2554 2586 2592 2533 2465 2360 2367 2450 2660 2767 2797 2812 2856 2862 2830 2880 2904 2933 2948 2953 2960 3000 2980 2905 2800 2687 2580 2470 2485 2491 2474 2447 2423 2380 2345 2288 2263 2223
 2507 2545 2560 2597 2649 2580 2547 2512 2435 2510 2690 2773 2846 2865 2880 2890 2893 2913 2951 2985 3020 3033 2993 3022 2948 2860 2760 2668 2540 2540 2553 2528 2488 2450 2400 2360 2342 2294 2250 2260
 2516 2537 2585 2633 2660 2681 2680 2660 2660 2690 2740 2794 2865 2923 2930 2945 2960 2953 2995 3030 3069 3090 3080 3033 2948 2840 2727 2635 2633 2647 2626 2580 2492 2440 2396 2364 2324 2288 2300 2313
 2500 2544 2588 2610 2647 2672 2689 2720 2763 2793 2840 2850 2860 2900 2972 3000 3020 3020 3048 3080 3115 3135 3070 2986 2912 2800 2700 2708 2714 2690 2664 2595 2513 2460 2400 2380 2380 2370 2380 2387
 2520 2564 2573 2608 2630 2654 2688 2720 2760 2805 2868 2909 2927 2914 2940 3010 3055 3090 3120 3145 3181 3100 3007 2914 2820 2740 2740 2780 2774 2735 2673 2600 2540 2485 2470 2467 2447 2432 2440 2433
 2560 2557 2576 2592 2610 2646 2695 2720 2748 2777 2828 2904 2953 2983 2995 2992 3000 3105 3160 3189 3160 3020 2932 2827 2786 2827 2810 2843 2800 2720 2664 2625 2592 2567 2550 2530 2526 2492 2467 2412
 2620 2623 2589 2595 2600 2628 2660 2696 2732 2792 2847 2885 2932 3006 3033 3045 3080 3127 3180 3195 3100 2980 2910 2856 2913 2927 2910 2860 2773 2733 2713 2680 2652 2630 2620 2592 2560 2506 2460 2435
 2633 2660 2620 2630 2673 2680 2713 2700 2790 2807 2855 2900 2948 3000 3060 3086 3120 3153 3215 3200 3110 2987 2930 2932 2973 2973 2907 2853 2830 2800 2771 2734 2708 2680 2660 2620 2567 2510 2468 2472
 2668 2685 2660 2634 2720 2727 2767 2773 2830 2877 2912 2960 3006 3027 3053 3124 3163 3188 3250 3227 3100 3014 3030 3014 3027 3008 2948 2926 2894 2860 2815 2775 2754 2725 2680 2628 2580 2525 2510 2504
 2680 2693 2700 2692 2732 2789 2788 2823 2825 2889 2950 2991 3032 3065 3094 3116 3180 3224 3268 3200 3100 3056 3080 3070 3090 3060 3028 3006 2960 2897 2868 2827 2788 2760 2693 2660 2606 2580 2553 2527
 2680 2707 2740 2745 2765 2807 2820 2840 2876 2900 2948 2995 3033 3069 3113 3160 3200 3248 3280 3187 3111 3140 3140 3120 3147 3120 3100 3068 3025 2960 2910 2856 2812 2773 2740 2700 2645 2594 2552 2508
 2665 2692 2700 2700 2750 2792 2820 2820 2840 2888 2946 2984 3032 3092 3133 3168 3214 3272 3280 3200 3188 3200 3208 3212 3208 3193 3166 3120 3073 3020 2968 2906 2855 2813 2766 2692 2673 2640 2580 2517
 2648 2649 2657 2672 2694 2709 2753 2795 2840 2888 2928 2984 3030 3080 3127 3175 3225 3288 3320 3250 3244 3242 3242 3220 3206 3206 3201 3168 3114 3055 2992 2945 2880 2810 2771 2770 2730 2660 2573 2592
 2619 2680 2710 2706 2753 2800 2816 2849 2873 2880 2906 2966 3007 3067 3112 3180 3240 3310 3312 3249 3211 3201 3209 3203 3220 3218 3202 3193 3140 3076 3020 2955 2880 2827 2840 2832 2780 2620 2620 2700
 2694 2729 2760 2760 2809 2836 2853 2871 2907 2945 2950 2985 2994 3052 3115 3173 3232 3320 3280 3230 3212 3203 3201 3202 3215 3208 3202 3187 3133 3068 3006 2935 2913 2886 2886 2840 2780 2680 2700 2792
 2723 2740 2770 2794 2825 2863 2884 2900 2943 2980 3005 3040 3063 3090 3134 3172 3232 3303 3260 3210 3202 3204 3202 3204 3217 3218 3214 3160 3105 3054 3033 2984 2955 2960 2970 2943 2780 2826 2852 2900
 2720 2737 2760 2793 2820 2866 2887 2904 2930 2953 2980 3013 3063 3100 3160 3195 3240 3280 3206 3237 3220 3212 3203 3215 3245 3246 3227 3207 3190 3150 3093 3055 3007 3090 3090 3010 2880 2910 2960 3010
 2737 2750 2763 2790 2835 2860 2840 2832 2853 2880 2920 2983 3035 3088 3148 3195 3260 3267 3208 3248 3234 3212 3200 3243 3251 3257 3274 3287 3286 3272 3227 3192 3113 3192 3205 3092 2980 3067 3073 3101
 2742 2750 2764 2795 2826 2795 2800 2847 2876 2913 2930 3000 3053 3120 3168 3220 3280 3220 3220 3215 3214 3203 3220 3260 3274 3295 3330 3340 3324 3293 3282 3263 3240 3252 3240 3203 3143 3132 3122 3075
 2730 2742 2757 2785 2780 2780 2835 2868 2900 2960 3013 3047 3072 3128 3184 3253 3290 3247 3255 3230 3220 3240 3285 3300 3280 3295 3293 3288 3260 3244 3220 3215 3215 3200 3186 3160 3135 3116 3072 3060
 2703 2707 2710 2720 2737 2785 2845 2890 2940 2987 3040 3087 3135 3135 3187 3247 3300 3315 3304 3268 3263 3265 3230 3245 3233 3256 3245 3240 3224 3192 3187 3183 3154 3140 3127 3108 3090 3080 3013 3007
 2679 2697 2700 2713 2780 2808 2850 2877 2947 2994 3040 3110 3173 3206 3208 3253 3291 3320 3270 3210 3180 3200 3168 3191 3184 3210 3200 3189 3187 3149 3140 3135 3107 3087 3080 3067 3047 3044 3000 2940
 2689 2715 2743 2718 2755 2777 2795 2830 2904 2970 3040 3080 3130 3186 3235 3280 3286 3305 3253 3207 3120 3153 3127 3152 3147 3164 3153 3145 3151 3123 3094 3092 3066 3047 3027 3010 2985 2995 2968 2913
 2694 2708 2760 2769 2782 2800 2829 2860 2920 2952 3020 3065 3088 3153 3220 3244 3276 3254 3210 3167 3100 3087 3080 3120 3127 3105 3097 3100 3113 3075 3056 3063 3043 2996 2980 2948 2913 2927 2920 2900
 2693 2723 2746 2745 2755 2772 2797 2846 2890 2952 2985 3010 3083 3140 3180 3200 3220 3196 3165 3107 3086 3045 3047 3094 3089 3082 3075 3066 3070 3040 3013 3013 3008 2975 2951 2920 2860 2840 2840 2840
 2672 2700 2728 2747 2765 2777 2800 2851 2875 2913 2940 3005 3072 3095 3140 3160 3170 3140 3120 3075 3052 3015 3047 3060 3056 3048 3032 3031 3014 3008 2967 2965 2955 2940 2936 2873 2826 2740 2760 2784
 2659 2680 2710 2735 2747 2770 2780 2800 2846 2886 2927 2983 3026 3054 3072 3100 3095 3075 3065 3045 3010 2996 3043 3008 3015 3000 2989 2997 2977 2976 2914 2900 2911 2907 2887 2860 2803 2720 2680 2710
 2686 2693 2703 2716 2740 2766 2791 2834 2866 2877 2900 2940 2954 3010 3008 3055 3047 3028 3026 2993 2973 3008 2990 2952 2968 2965 2960 2965 2945 2928 2886 2852 2867 2864 2834 2826 2803 2730 2668 2640
 2687 2698 2708 2719 2743 2758 2788 2820 2845 2840 2869 2880 2926 2930 2985 2996 3000 2985 2983 2957 2960 2977 2965 2915 2927 2925 2925 2915 2920 2880 2860 2815 2820 2815 2800 2785 2780 2740 2675 2607
 2682 2693 2705 2715 2733 2750 2770 2788 2800 2826 2816 2869 2873 2900 2952 2956 2970 2936 2937 2940 2946 2940 2925 2890 2890 2886 2886 2880 2887 2874 2826 2780 2753 2760 2768 2752 2744 2693 2650 2610
 2678 2691 2703 2695 2706 2717 2733 2756 2775 2783 2813 2860 2836 2872 2895 2915 2912 2898 2941 2913 2904 2904 2887 2854 2880 2854 2850 2836 2840 2840 2826 2785 2713 2707 2714 2700 2706 2687 2620 2570
 2677 2688 2678 2697 2715 2730 2742 2757 2764 2773 2789 2800 2820 2862 2868 2865 2880 2920 2920 2895 2856 2876 2860 2814 2844 2810 2800 2792 2795 2775 2775 2760 2713 2660 2675 2670 2645 2613 2606 2570
 2666 2667 2675 2693 2710 2730 2754 2766 2755 2749 2768 2786 2815 2831 2830 2845 2886 2884 2884 2874 2826 2834 2814 2788 2793 2780 2776 2750 2753 2744 2720 2707 2680 2650 2620 2635 2605 2565 2575 2547
 2659 2670 2685 2692 2700 2723 2770 2780 2764 2738 2764 2772 2776 2785 2805 2852 2864 2863 2844 2849 2814 2792 2787 2774 2754 2763 2740 2695 2700 2700 2673 2666 2630 2600 2587 2593 2577 2540 2510 2508
 2659 2671 2681 2690 2700 2730 2772 2760 2732 2731 2743 2760 2750 2766 2790 2820 2820 2825 2800 2808 2794 2765 2760 2754 2740 2715 2700 2673 2640 2655 2614 2620 2580 2530 2564 2546 2534 2510 2450 2450
 2658 2668 2676 2686 2700 2726 2732 2720 2700 2716 2730 2733 2709 2755 2771 2778 2780 2790 2777 2780 2767 2740 2711 2716 2700 2680 2667 2664 2613 2592 2594 2553 2520 2505 2507 2500 2489 2453 2432 2386
 2654 2664 2669 2677 2683 2690 2697 2700 2685 2694 2720 2705 2693 2720 2747 2756 2755 2755 2745 2743 2738 2729 2695 2675 2672 2656 2660 2620 2597 2565 2553 2520 2487 2490 2468 2457 2469 2444 2400 2340
