ncols        400
nrows        47
xllcorner    524000
yllcorner    1108440
cellsize     10.000000000000
NODATA_value  -32767
2630 2632 2634 2640 2646 2650 2654 2660 2665 2669 2673 2676 2676 2676 2676 2676 2673 2671 2667 2665 2660 2652 2647 2640 2630 2620 2613 2608 2600 2600 2599 2599 2600 2610 2620 2630 2640 2660 2667 2672 2680 2685 2687 2693 2695 2700 2705 2705 2705 2705 2705 2700 2700 2695 2695 2694 2693 2696 2700 2707 2713 2720 2726 2730 2733 2740 2740 2740 2740 2740 2740 2740 2730 2728 2728 2730 2750 2760 2770 2780 2788 2792 2800 2805 2807 2813 2815 2820 2826 2830 2833 2840 2840 2840 2850 2850 2850 2852 2860 2860 2860 2867 2867 2867 2870 2874 2880 2886 2890 2893 2894 2895 2900 2908 2912 2920 2925 2926 2930 2934 2935 2940 2950 2952 2954 2960 2967 2970 2974 2975 2980 2980 2987 2987 2988 2993 2995 3000 3010 3020 3028 3032 3040 3050 3060 3064 3067 3071 3075 3080 3085 3089 3093 3095 3100 3100 3106 3108 3113 3115 3120 3126 3130 3134 3140 3144 3147 3149 3150 3151 3152 3152 3154 3155 3156 3160 3170 3180 3187 3192 3200 3207 3213 3220 3226 3230 3234 3240 3245 3245 3245 3245 3240 3230 3220 3213 3208 3200 3190 3180 3170 3160 3147 3133 3120 3110 3100 3090 3080 3073 3067 3060 3040 3008 3000 2990 2980 2976 2966 2967 2968 2967 2967 2980 2980 2990 2990 2990 2990 2990 2990 2980 2968 2963 2960 2963 2967 2960 2968 2972 2980 2988 2992 2994 3000 3000 3000 3000 3000 2996 2996 2996 2995 2992 2986 2980 2976 2974 2969 2965 2960 2940 2930 2920 2913 2908 2900 2894 2888 2886 2880 2880 2880 2880 2880 2880 2880 2880 2873 2873 2872 2868 2867 2867 2866 2865 2860 2860 2860 2850 2840 2840 2833 2830 2826 2825 2825 2820 2820 2814 2810 2807 2806 2800 2792 2790 2788 2780 2780 2775 2773 2767 2765 2760 2755 2753 2750 2748 2745 2744 2740 2740 2735 2733 2730 2728 2726 2725 2725 2720 2713 2713 2710 2706 2700 2700 2695 2693 2690 2688 2684 2680 2676 2675 2671 2669 2665 2664 2660 2655 2650 2645 2640 2635 2630 2625 2620 2610 2600 2594 2588 2585 2580 2576 2572 2568 2564 2560 2550 2540 2535 2530 2525 2520 2513 2507 2500 2495 2491 2487 2484 2480 2480 2478 2477 2480 2480 2480 2480 2480 2480 2480 2480 2480 2484 2484 2485 2486 2486 2487
2635 2635 2640 2640 2647 2653 2660 2665 2667 2673 2675 2680 2680 2680 2680 2680 2676 2675 2672 2666 2660 2653 2648 2640 2632 2628 2620 2612 2607 2605 2600 2599 2600 2610 2620 2630 2640 2660 2667 2673 2680 2686 2692 2695 2700 2706 2708 2710 2710 2710 2708 2707 2706 2700 2700 2696 2695 2697 2700 2708 2713 2720 2728 2733 2740 2746 2747 2747 2747 2747 2747 2747 2740 2733 2733 2740 2740 2760 2770 2780 2790 2800 2805 2807 2813 2815 2820 2826 2830 2834 2840 2848 2850 2850 2860 2860 2860 2860 2865 2866 2868 2872 2873 2873 2874 2880 2887 2890 2894 2900 2900 2900 2908 2912 2920 2925 2927 2932 2934 2940 2940 2950 2960 2960 2960 2970 2972 2974 2980 2980 2987 2988 2992 2993 2994 2995 3000 3006 3010 3014 3020 3030 3040 3048 3053 3060 3066 3072 3075 3080 3086 3092 3095 3100 3105 3106 3110 3114 3115 3120 3126 3130 3134 3140 3144 3147 3150 3153 3155 3155 3156 3156 3156 3160 3160 3167 3172 3180 3187 3193 3200 3207 3213 3220 3228 3233 3240 3245 3247 3250 3250 3246 3240 3232 3227 3220 3210 3200 3190 3180 3170 3160 3147 3133 3120 3110 3100 3090 3080 3073 3067 3060 3020 3010 3000 2990 2980 2977 2972 2972 2980 2980 2980 2990 3000 3000 3000 3000 3000 3000 3000 2990 2980 2980 2980 2980 2960 2970 2972 2980 2988 2992 3000 3000 3004 3004 3004 3004 3004 3000 3000 3000 3000 2994 2990 2986 2980 2975 2972 2966 2960 2940 2932 2928 2920 2910 2900 2895 2894 2890 2887 2887 2887 2887 2887 2887 2887 2887 2880 2880 2875 2874 2873 2873 2872 2868 2866 2865 2864 2860 2860 2850 2840 2834 2832 2830 2827 2825 2825 2820 2814 2813 2810 2806 2800 2800 2792 2788 2786 2780 2775 2773 2768 2766 2760 2756 2754 2751 2749 2745 2744 2743 2740 2736 2734 2732 2731 2730 2728 2726 2720 2720 2714 2710 2706 2705 2700 2696 2694 2690 2686 2684 2680 2676 2675 2671 2668 2664 2660 2655 2650 2645 2640 2635 2630 2625 2620 2610 2600 2595 2590 2585 2580 2576 2574 2569 2565 2560 2550 2540 2535 2530 2525 2520 2513 2507 2500 2496 2492 2490 2487 2485 2485 2480 2480 2484 2484 2484 2484 2484 2485 2485 2485 2485 2486 2488 2488 2488 2489 2487
2640 2640 2645 2645 2648 2654 2660 2666 2672 2675 2680 2681 2681 2681 2681 2681 2680 2680 2674 2670 2666 2660 2652 2648 2640 2630 2620 2614 2612 2608 2607 2600 2607 2612 2620 2630 2640 2660 2667 2673 2680 2688 2693 2700 2700 2708 2713 2715 2715 2715 2714 2713 2710 2706 2705 2700 2697 2700 2708 2712 2720 2728 2732 2740 2746 2750 2753 2753 2753 2753 2753 2752 2750 2740 2740 2750 2750 2760 2770 2780 2790 2800 2806 2812 2815 2820 2820 2828 2833 2840 2848 2852 2860 2860 2864 2864 2865 2865 2867 2872 2873 2880 2880 2880 2880 2888 2892 2894 2900 2906 2908 2910 2912 2920 2927 2928 2933 2935 2940 2950 2950 2960 2968 2970 2970 2980 2980 2980 2988 2990 2992 2993 3000 3000 3000 3000 3006 3008 3014 3020 3027 3032 3040 3047 3053 3060 3067 3073 3080 3086 3090 3094 3100 3105 3107 3112 3114 3120 3120 3125 3128 3134 3140 3144 3147 3150 3153 3156 3160 3160 3160 3160 3160 3165 3165 3168 3174 3180 3187 3193 3200 3208 3213 3220 3230 3240 3240 3246 3252 3255 3253 3248 3240 3233 3228 3220 3210 3200 3190 3180 3170 3160 3147 3133 3120 3110 3100 3090 3080 3073 3067 3060 3020 3012 3008 3000 2990 2980 2980 2980 2988 2990 2990 3000 3007 3007 3007 3007 3007 3007 3006 3000 2990 2990 2990 2990 2980 2980 2980 2988 2992 3000 3005 3005 3006 3008 3008 3008 3006 3005 3005 3005 3005 3000 2994 2990 2986 2980 2973 2968 2960 2950 2940 2930 2920 2912 2908 2900 2900 2894 2893 2893 2893 2893 2893 2893 2893 2892 2890 2890 2880 2880 2880 2880 2875 2874 2872 2869 2867 2865 2865 2860 2850 2840 2835 2835 2833 2830 2827 2825 2820 2820 2814 2810 2806 2805 2800 2793 2788 2785 2780 2775 2774 2770 2766 2760 2756 2755 2751 2749 2747 2745 2744 2740 2736 2736 2735 2735 2734 2730 2726 2725 2720 2714 2712 2707 2705 2700 2696 2692 2689 2685 2683 2680 2676 2674 2669 2665 2660 2655 2650 2645 2640 2635 2630 2625 2620 2610 2600 2595 2593 2587 2585 2580 2575 2572 2566 2560 2550 2540 2535 2530 2525 2520 2513 2507 2500 2496 2496 2493 2491 2490 2487 2485 2485 2486 2488 2488 2488 2488 2489 2490 2490 2490 2491 2492 2492 2492 2490 2488
2644 2645 2647 2650 2653 2655 2660 2668 2673 2680 2681 2681 2682 2682 2682 2682 2681 2681 2680 2674 2670 2666 2660 2652 2648 2640 2630 2620 2615 2614 2612 2608 2610 2614 2620 2630 2640 2660 2667 2673 2680 2690 2700 2706 2708 2712 2720 2720 2720 2720 2720 2720 2714 2712 2708 2707 2700 2708 2712 2720 2720 2730 2740 2746 2750 2754 2760 2760 2760 2760 2760 2760 2760 2760 2760 2760 2753 2760 2770 2780 2790 2800 2808 2813 2820 2826 2828 2832 2840 2848 2852 2860 2863 2864 2865 2868 2869 2870 2873 2875 2880 2886 2887 2887 2888 2892 2900 2900 2907 2910 2913 2920 2920 2928 2932 2934 2935 2940 2950 2960 2960 2968 2972 2980 2980 2988 2990 2990 2992 3000 3000 3000 3007 3007 3007 3007 3010 3014 3015 3020 3027 3033 3040 3047 3052 3060 3067 3073 3080 3087 3093 3100 3104 3107 3111 3115 3120 3124 3125 3127 3133 3135 3140 3145 3149 3153 3156 3160 3163 3163 3164 3164 3165 3167 3170 3173 3175 3180 3188 3193 3200 3210 3220 3228 3232 3240 3246 3250 3254 3260 3260 3252 3247 3240 3232 3227 3220 3210 3200 3190 3180 3160 3147 3133 3120 3110 3100 3090 3080 3073 3067 3060 3040 3020 3010 3000 2992 2990 2988 2990 2992 3000 3000 3008 3012 3013 3013 3013 3013 3013 3010 3006 3000 3000 3000 3000 2990 2990 2990 2992 3000 3007 3008 3010 3011 3012 3012 3012 3011 3010 3010 3010 3008 3006 3000 2994 2990 2986 2980 2972 2968 2960 2950 2940 2930 2920 2912 2910 2908 2900 2900 2900 2900 2900 2900 2900 2900 2900 2900 2900 2890 2890 2888 2887 2880 2880 2875 2873 2871 2870 2867 2865 2860 2850 2840 2840 2835 2835 2833 2828 2826 2825 2820 2814 2810 2805 2800 2795 2793 2788 2786 2780 2780 2774 2770 2766 2760 2756 2755 2752 2750 2749 2746 2744 2740 2740 2740 2740 2740 2734 2732 2727 2725 2720 2715 2712 2706 2700 2696 2695 2691 2688 2685 2683 2680 2675 2670 2665 2660 2655 2650 2645 2640 2635 2630 2625 2620 2612 2607 2600 2595 2593 2587 2585 2580 2573 2568 2560 2550 2540 2535 2532 2526 2520 2514 2510 2507 2500 2500 2496 2495 2495 2493 2490 2490 2491 2492 2492 2492 2492 2494 2495 2495 2495 2495 2496 2495 2493 2492 2489
2647 2649 2653 2655 2655 2660 2667 2672 2680 2681 2681 2683 2683 2683 2683 2683 2682 2682 2681 2680 2674 2670 2666 2660 2652 2648 2640 2640 2620 2620 2620 2613 2614 2620 2620 2630 2640 2660 2667 2673 2680 2700 2705 2708 2713 2720 2726 2728 2730 2730 2730 2730 2720 2715 2714 2712 2710 2712 2720 2726 2728 2732 2740 2748 2753 2760 2764 2765 2765 2765 2765 2765 2765 2765 2765 2765 2760 2768 2772 2780 2790 2800 2810 2820 2825 2828 2833 2840 2848 2852 2860 2863 2865 2867 2869 2871 2874 2875 2875 2880 2886 2890 2893 2893 2893 2900 2908 2910 2912 2914 2920 2930 2930 2932 2940 2940 2940 2950 2960 2966 2968 2972 2980 2986 2988 2992 3000 3000 3000 3007 3008 3010 3012 3013 3013 3013 3014 3020 3020 3020 3026 3032 3035 3040 3050 3060 3067 3072 3080 3088 3093 3100 3105 3109 3113 3116 3120 3125 3129 3133 3135 3140 3145 3147 3153 3155 3160 3163 3164 3166 3167 3168 3169 3173 3175 3175 3180 3187 3192 3200 3207 3212 3220 3230 3240 3246 3250 3254 3260 3265 3260 3253 3248 3240 3233 3227 3220 3210 3200 3190 3180 3160 3147 3133 3120 3110 3100 3090 3080 3073 3067 3060 3040 3020 3012 3008 3000 3000 2993 3000 3000 3006 3008 3012 3020 3020 3020 3020 3020 3020 3014 3010 3006 3005 3005 3005 3000 3000 3000 3000 3008 3012 3014 3015 3015 3016 3016 3016 3015 3015 3015 3015 3014 3010 3006 3000 2994 2990 2986 2980 2970 2960 2960 2950 2940 2930 2920 2920 2912 2910 2910 2910 2910 2910 2910 2910 2908 2907 2906 2905 2900 2900 2893 2892 2888 2886 2880 2876 2875 2875 2873 2867 2865 2860 2850 2848 2840 2840 2835 2834 2832 2826 2820 2815 2813 2807 2805 2800 2795 2794 2790 2786 2785 2780 2774 2770 2766 2760 2757 2755 2753 2752 2750 2747 2745 2745 2744 2744 2744 2740 2735 2733 2727 2725 2720 2714 2710 2706 2700 2696 2693 2690 2687 2683 2680 2675 2672 2666 2660 2655 2652 2646 2640 2635 2632 2626 2620 2614 2608 2605 2600 2595 2593 2588 2586 2580 2570 2560 2552 2548 2540 2534 2528 2525 2520 2514 2512 2508 2506 2500 2500 2500 2495 2495 2495 2495 2496 2496 2496 2496 2496 2500 2500 2500 2500 2500 2497 2496 2493 2491
2649 2653 2655 2660 2660 2666 2670 2674 2680 2681 2682 2683 2684 2684 2684 2684 2683 2683 2682 2681 2680 2674 2670 2666 2660 2652 2648 2646 2640 2630 2628 2620 2620 2625 2627 2632 2640 2660 2667 2673 2680 2700 2705 2710 2715 2720 2728 2733 2740 2740 2740 2740 2730 2720 2720 2720 2720 2720 2726 2730 2733 2740 2748 2752 2760 2764 2767 2769 2770 2770 2770 2770 2770 2770 2770 2767 2767 2772 2780 2790 2800 2807 2812 2820 2825 2830 2835 2840 2850 2860 2863 2865 2868 2870 2872 2875 2876 2880 2880 2886 2890 2894 2900 2900 2900 2908 2912 2920 2920 2920 2930 2940 2940 2940 2948 2950 2950 2960 2966 2970 2973 2980 2986 2990 2993 3000 3005 3006 3008 3012 3013 3020 3020 3020 3020 3020 3020 3027 3027 3027 3028 3033 3035 3040 3048 3053 3060 3070 3080 3090 3100 3105 3107 3113 3115 3120 3124 3127 3131 3135 3140 3145 3147 3153 3155 3160 3163 3164 3167 3168 3170 3171 3174 3175 3180 3180 3180 3188 3193 3200 3207 3213 3220 3230 3240 3248 3253 3260 3267 3268 3267 3260 3250 3240 3233 3227 3220 3210 3200 3190 3180 3160 3147 3133 3120 3110 3100 3090 3080 3073 3067 3060 3043 3037 3020 3012 3007 3005 3000 3006 3007 3010 3013 3020 3025 3025 3025 3025 3025 3025 3020 3014 3012 3010 3010 3008 3006 3007 3007 3008 3012 3020 3020 3020 3020 3020 3020 3020 3020 3020 3020 3020 3020 3014 3010 3006 3000 2993 2988 2980 2972 2970 2968 2960 2940 2940 2930 2930 2920 2920 2920 2920 2920 2920 2920 2920 2913 2913 2912 2908 2906 2905 2900 2900 2893 2890 2887 2880 2880 2880 2875 2873 2868 2867 2860 2852 2848 2846 2840 2840 2834 2830 2826 2820 2815 2813 2808 2806 2800 2800 2794 2792 2787 2785 2780 2774 2768 2765 2760 2757 2756 2756 2753 2751 2750 2749 2748 2748 2746 2744 2740 2735 2733 2727 2725 2720 2713 2708 2700 2697 2695 2692 2688 2685 2683 2680 2674 2668 2665 2660 2654 2648 2645 2640 2633 2627 2620 2615 2613 2607 2605 2600 2595 2593 2588 2580 2572 2567 2560 2550 2540 2535 2533 2527 2525 2520 2520 2513 2510 2507 2507 2507 2500 2500 2500 2500 2500 2500 2500 2500 2500 2507 2506 2505 2504 2504 2500 2497 2494 2492
2652 2655 2660 2664 2665 2668 2674 2680 2681 2682 2683 2684 2684 2685 2685 2685 2685 2684 2683 2682 2682 2680 2674 2670 2666 2660 2653 2650 2647 2640 2632 2630 2628 2628 2632 2634 2640 2660 2667 2673 2680 2700 2705 2710 2715 2720 2730 2740 2743 2744 2744 2744 2740 2730 2728 2727 2727 2727 2730 2734 2740 2740 2750 2760 2764 2767 2770 2773 2775 2775 2775 2775 2775 2775 2775 2773 2770 2774 2780 2790 2800 2807 2813 2820 2825 2830 2835 2840 2860 2863 2865 2868 2870 2872 2875 2877 2880 2885 2886 2890 2894 2900 2905 2906 2908 2912 2920 2928 2930 2940 2940 2946 2947 2948 2952 2960 2960 2966 2970 2974 2980 2985 2988 2994 3000 3006 3008 3012 3013 3020 3020 3026 3027 3027 3027 3027 3028 3032 3033 3033 3034 3035 3040 3040 3047 3053 3060 3070 3080 3090 3100 3105 3110 3115 3120 3124 3127 3130 3133 3136 3140 3146 3152 3155 3160 3163 3164 3167 3168 3172 3173 3175 3176 3180 3186 3188 3190 3192 3200 3200 3208 3213 3220 3230 3240 3250 3260 3268 3272 3273 3270 3260 3250 3240 3233 3227 3220 3210 3200 3190 3180 3160 3147 3133 3120 3100 3093 3088 3080 3074 3068 3065 3060 3040 3020 3014 3012 3008 3007 3010 3013 3014 3020 3027 3028 3030 3030 3030 3030 3028 3027 3020 3015 3015 3015 3014 3012 3013 3013 3013 3020 3027 3027 3027 3027 3027 3027 3027 3026 3025 3025 3024 3024 3020 3014 3008 3005 3000 2992 2988 2980 2980 2970 2960 2950 2948 2940 2940 2930 2930 2930 2928 2927 2927 2927 2926 2920 2920 2915 2914 2912 2907 2905 2905 2900 2894 2892 2888 2886 2885 2880 2875 2874 2872 2868 2860 2853 2850 2846 2845 2840 2834 2828 2826 2820 2815 2814 2810 2807 2806 2800 2795 2792 2786 2780 2775 2773 2767 2765 2760 2760 2760 2756 2755 2755 2754 2752 2752 2750 2747 2745 2740 2735 2733 2727 2725 2720 2712 2707 2700 2697 2693 2690 2687 2684 2680 2675 2670 2665 2660 2655 2650 2645 2640 2634 2628 2625 2620 2615 2611 2607 2604 2600 2600 2590 2580 2573 2567 2560 2552 2548 2540 2535 2533 2527 2525 2524 2520 2514 2513 2513 2512 2508 2510 2510 2510 2510 2510 2510 2510 2510 2512 2512 2509 2508 2504 2500 2497 2495 2493
2653 2660 2664 2667 2669 2673 2675 2680 2681 2682 2683 2684 2685 2686 2686 2686 2685 2685 2684 2684 2682 2682 2680 2674 2670 2666 2660 2654 2652 2648 2640 2640 2633 2634 2635 2640 2660 2665 2668 2674 2680 2700 2705 2708 2714 2720 2730 2740 2744 2747 2748 2746 2745 2740 2733 2733 2733 2733 2734 2740 2747 2750 2760 2764 2767 2770 2773 2776 2780 2780 2780 2780 2780 2780 2780 2775 2774 2775 2780 2790 2800 2807 2813 2820 2825 2830 2835 2840 2860 2864 2867 2870 2872 2875 2877 2880 2885 2887 2892 2894 2900 2905 2907 2912 2913 2920 2930 2932 2940 2945 2946 2950 2953 2953 2960 2966 2967 2970 2974 2980 2985 2987 2993 2995 3000 3008 3013 3015 3020 3025 3026 3030 3033 3033 3033 3033 3033 3040 3040 3040 3040 3040 3045 3045 3048 3054 3060 3070 3080 3090 3100 3105 3110 3115 3120 3125 3129 3133 3136 3140 3145 3148 3154 3160 3163 3164 3167 3168 3172 3173 3176 3177 3180 3186 3190 3193 3200 3200 3205 3207 3212 3220 3230 3240 3248 3252 3260 3270 3280 3280 3280 3260 3250 3240 3233 3227 3220 3210 3200 3190 3180 3160 3147 3133 3120 3100 3093 3087 3080 3073 3068 3060 3048 3040 3030 3020 3015 3014 3013 3014 3020 3020 3028 3032 3034 3035 3035 3035 3035 3034 3032 3028 3020 3020 3020 3020 3015 3020 3020 3020 3030 3032 3033 3033 3033 3033 3033 3033 3032 3030 3029 3028 3025 3020 3015 3013 3007 3005 3000 2992 2988 2986 2980 2970 2960 2952 2950 2950 2940 2940 2940 2933 2933 2933 2933 2930 2927 2927 2920 2920 2915 2913 2910 2908 2906 2900 2900 2893 2892 2887 2885 2880 2880 2880 2872 2870 2860 2854 2852 2846 2840 2835 2834 2830 2826 2820 2820 2814 2813 2810 2806 2800 2793 2788 2780 2780 2775 2773 2768 2767 2767 2766 2760 2760 2760 2756 2756 2756 2753 2751 2748 2746 2740 2735 2732 2726 2720 2713 2708 2700 2697 2695 2691 2688 2684 2680 2675 2670 2665 2660 2655 2650 2645 2640 2635 2632 2626 2620 2616 2613 2609 2605 2600 2593 2588 2580 2574 2570 2566 2560 2552 2547 2540 2535 2533 2529 2527 2525 2520 2520 2520 2520 2513 2520 2520 2520 2520 2520 2520 2520 2520 2520 2515 2514 2509 2505 2500 2498 2495 2493
2653 2660 2665 2669 2673 2675 2680 2681 2682 2683 2684 2685 2686 2687 2687 2687 2687 2686 2686 2685 2684 2683 2682 2680 2674 2670 2666 2660 2660 2652 2648 2647 2640 2640 2640 2650 2660 2665 2670 2675 2680 2690 2700 2707 2713 2720 2730 2740 2745 2749 2752 2751 2748 2747 2740 2740 2740 2740 2740 2746 2750 2753 2760 2765 2769 2773 2776 2780 2783 2784 2784 2785 2785 2785 2785 2780 2776 2780 2787 2792 2800 2807 2813 2820 2825 2830 2835 2840 2860 2864 2868 2871 2875 2877 2880 2885 2887 2893 2895 2900 2905 2907 2913 2915 2920 2930 2940 2940 2945 2947 2952 2954 2960 2960 2966 2970 2973 2974 2980 2985 2987 2993 2995 3000 3008 3012 3020 3020 3025 3027 3032 3034 3040 3040 3040 3040 3040 3045 3046 3047 3047 3047 3048 3050 3051 3053 3056 3060 3070 3080 3100 3105 3108 3114 3120 3125 3130 3135 3140 3145 3147 3153 3155 3160 3163 3166 3168 3172 3173 3176 3177 3180 3186 3190 3194 3200 3204 3205 3207 3212 3214 3220 3230 3240 3250 3260 3270 3280 3280 3280 3280 3260 3250 3240 3233 3227 3220 3210 3200 3190 3180 3160 3143 3133 3120 3100 3094 3088 3085 3080 3070 3060 3053 3047 3040 3030 3020 3020 3020 3020 3028 3030 3032 3040 3040 3040 3040 3040 3040 3040 3040 3032 3027 3027 3028 3030 3020 3030 3040 3040 3040 3040 3040 3040 3040 3040 3040 3040 3035 3035 3034 3031 3027 3025 3020 3015 3013 3007 3005 3000 2993 2990 2986 2980 2970 2960 2960 2960 2950 2950 2948 2940 2940 2940 2940 2934 2933 2932 2928 2927 2920 2915 2915 2914 2910 2906 2905 2900 2895 2893 2887 2885 2884 2884 2880 2880 2870 2860 2854 2850 2846 2840 2840 2834 2830 2826 2825 2820 2820 2814 2810 2807 2800 2792 2790 2788 2780 2775 2774 2773 2773 2770 2766 2765 2765 2760 2760 2760 2756 2755 2754 2750 2746 2740 2734 2730 2726 2720 2712 2708 2700 2696 2694 2689 2685 2680 2675 2672 2666 2660 2655 2653 2647 2645 2640 2634 2630 2627 2620 2615 2613 2607 2605 2600 2592 2588 2580 2573 2568 2560 2554 2550 2546 2540 2535 2533 2531 2528 2527 2526 2527 2527 2520 2527 2527 2527 2527 2527 2527 2526 2525 2524 2520 2515 2512 2506 2500 2498 2496 2494
2653 2660 2666 2672 2675 2680 2681 2682 2683 2683 2684 2685 2686 2687 2688 2688 2687 2687 2686 2686 2685 2685 2683 2682 2680 2674 2670 2666 2665 2660 2653 2652 2650 2650 2650 2652 2660 2666 2672 2675 2680 2690 2700 2707 2712 2720 2730 2740 2746 2752 2755 2755 2754 2752 2750 2750 2748 2747 2747 2748 2754 2760 2764 2767 2771 2775 2780 2783 2785 2787 2788 2789 2790 2790 2788 2787 2780 2785 2788 2794 2800 2807 2813 2820 2825 2830 2835 2840 2860 2865 2867 2873 2875 2880 2885 2887 2893 2895 2900 2905 2907 2913 2915 2920 2930 2940 2944 2945 2947 2953 2955 2960 2965 2966 2970 2974 2980 2980 2984 2987 2991 2995 3000 3007 3012 3020 3024 3025 3027 3033 3035 3040 3043 3043 3044 3044 3045 3047 3052 3053 3053 3053 3054 3055 3055 3056 3060 3066 3070 3074 3080 3100 3107 3112 3120 3125 3130 3135 3140 3145 3150 3155 3160 3163 3165 3168 3171 3173 3176 3177 3180 3186 3190 3194 3200 3204 3207 3209 3213 3215 3220 3228 3232 3240 3250 3260 3270 3280 3280 3280 3270 3260 3250 3240 3232 3227 3220 3210 3200 3190 3180 3160 3140 3120 3110 3100 3095 3091 3086 3084 3080 3060 3053 3047 3040 3032 3027 3026 3028 3030 3032 3040 3040 3047 3047 3047 3047 3047 3046 3045 3040 3034 3033 3033 3033 3040 3040 3040 3047 3047 3047 3047 3047 3047 3047 3047 3046 3045 3040 3040 3036 3035 3033 3027 3025 3020 3015 3013 3007 3005 3000 2994 2990 2986 2980 2980 2970 2970 2960 2960 2952 2950 2950 2950 2948 2940 2940 2940 2933 2932 2928 2920 2920 2920 2914 2912 2907 2905 2900 2895 2893 2889 2888 2885 2883 2883 2880 2870 2860 2854 2850 2847 2847 2840 2834 2832 2828 2826 2825 2820 2814 2812 2808 2800 2800 2792 2788 2780 2780 2780 2780 2774 2772 2770 2767 2765 2764 2764 2760 2760 2760 2754 2750 2746 2740 2734 2730 2726 2720 2712 2708 2700 2695 2691 2687 2684 2680 2674 2668 2665 2660 2655 2651 2647 2644 2640 2634 2632 2628 2620 2615 2613 2607 2605 2600 2592 2587 2580 2572 2568 2560 2554 2550 2546 2540 2536 2535 2534 2533 2532 2533 2532 2530 2532 2533 2533 2533 2533 2533 2532 2529 2527 2524 2520 2513 2507 2500 2498 2497 2496
2653 2660 2667 2673 2680 2681 2682 2683 2683 2684 2685 2686 2687 2688 2689 2688 2688 2688 2688 2687 2687 2686 2685 2684 2683 2680 2674 2672 2668 2667 2660 2660 2660 2660 2660 2654 2660 2668 2673 2680 2680 2688 2693 2700 2710 2720 2730 2740 2747 2752 2760 2760 2760 2760 2760 2760 2753 2753 2753 2754 2755 2760 2765 2769 2773 2776 2780 2784 2787 2790 2791 2794 2795 2795 2794 2792 2788 2787 2791 2795 2800 2807 2813 2820 2825 2830 2835 2840 2850 2860 2867 2873 2880 2884 2886 2891 2895 2900 2905 2907 2913 2915 2920 2928 2932 2940 2945 2949 2953 2955 2960 2965 2967 2972 2974 2980 2983 2984 2986 2990 2993 2996 3000 3008 3013 3020 3025 3029 3033 3035 3040 3043 3045 3047 3047 3048 3049 3053 3055 3060 3060 3060 3060 3060 3060 3060 3060 3066 3070 3075 3080 3090 3100 3110 3120 3125 3130 3135 3140 3145 3150 3155 3160 3163 3166 3169 3172 3175 3177 3180 3186 3190 3194 3200 3204 3207 3210 3213 3215 3220 3220 3230 3240 3247 3252 3260 3270 3280 3280 3280 3260 3250 3240 3233 3228 3220 3212 3208 3200 3180 3170 3160 3140 3120 3110 3100 3096 3092 3088 3084 3080 3060 3053 3047 3040 3034 3032 3032 3033 3040 3040 3046 3048 3052 3053 3053 3053 3053 3052 3047 3045 3040 3040 3040 3040 3046 3047 3048 3052 3053 3053 3053 3053 3053 3053 3053 3052 3048 3046 3045 3040 3040 3035 3033 3028 3026 3020 3015 3013 3008 3006 3000 2994 2990 2987 2987 2980 2980 2980 2980 2960 2960 2960 2960 2952 2950 2950 2950 2940 2940 2932 2930 2930 2930 2920 2915 2913 2907 2905 2900 2895 2894 2891 2888 2886 2884 2883 2880 2870 2860 2854 2853 2852 2848 2840 2835 2834 2832 2827 2825 2820 2820 2812 2808 2806 2800 2792 2790 2788 2786 2785 2780 2775 2775 2773 2769 2768 2765 2764 2763 2763 2760 2754 2750 2746 2740 2734 2730 2726 2720 2710 2700 2696 2693 2689 2685 2680 2675 2670 2665 2660 2656 2653 2650 2647 2644 2640 2640 2632 2628 2620 2615 2612 2606 2600 2594 2590 2586 2580 2572 2567 2560 2554 2548 2545 2540 2540 2540 2540 2535 2540 2540 2540 2540 2540 2540 2540 2540 2540 2535 2533 2529 2525 2520 2513 2507 2500 2500 2498 2498
2653 2660 2667 2673 2680 2681 2682 2683 2684 2685 2686 2686 2687 2688 2689 2689 2689 2689 2689 2689 2688 2688 2687 2686 2684 2683 2680 2675 2674 2672 2670 2668 2666 2665 2665 2660 2668 2672 2680 2685 2687 2692 2700 2707 2712 2720 2728 2733 2740 2750 2760 2764 2764 2765 2765 2765 2760 2760 2760 2760 2760 2760 2765 2770 2775 2780 2783 2785 2789 2792 2795 2796 2800 2800 2800 2800 2793 2793 2792 2796 2800 2807 2813 2820 2825 2830 2835 2840 2850 2860 2867 2873 2880 2884 2888 2892 2896 2900 2905 2910 2915 2920 2927 2932 2940 2945 2947 2953 2955 2960 2965 2967 2973 2975 2980 2983 2985 2987 2989 2992 2996 3000 3007 3012 3020 3025 3027 3033 3035 3040 3043 3045 3048 3050 3051 3052 3054 3055 3060 3063 3063 3064 3064 3065 3066 3067 3067 3070 3074 3075 3080 3090 3100 3110 3120 3125 3130 3135 3140 3145 3150 3155 3160 3163 3167 3170 3173 3177 3180 3186 3190 3194 3200 3204 3207 3210 3213 3216 3220 3226 3228 3232 3240 3247 3253 3260 3268 3273 3274 3280 3260 3250 3240 3232 3227 3220 3210 3200 3190 3180 3170 3160 3140 3120 3110 3100 3095 3091 3086 3084 3080 3060 3054 3048 3045 3040 3035 3035 3040 3046 3047 3050 3053 3060 3060 3060 3060 3060 3055 3053 3048 3047 3047 3047 3046 3050 3053 3053 3060 3060 3060 3060 3060 3060 3060 3060 3055 3054 3052 3048 3046 3045 3040 3035 3034 3030 3027 3020 3015 3014 3010 3006 3000 2994 2993 2992 2988 2987 2987 2987 2980 2970 2970 2970 2960 2960 2960 2960 2950 2950 2940 2940 2940 2940 2930 2920 2915 2913 2907 2905 2900 2896 2893 2891 2888 2887 2884 2883 2880 2870 2860 2860 2860 2852 2848 2840 2840 2835 2833 2828 2826 2825 2820 2813 2810 2806 2800 2800 2793 2792 2787 2785 2780 2780 2775 2774 2771 2769 2767 2766 2764 2763 2760 2754 2750 2746 2740 2734 2728 2725 2720 2710 2700 2695 2692 2686 2680 2675 2671 2667 2664 2660 2656 2653 2650 2647 2644 2643 2640 2632 2627 2620 2614 2608 2605 2600 2593 2587 2580 2573 2567 2560 2555 2553 2547 2547 2547 2547 2547 2540 2547 2547 2547 2547 2547 2546 2545 2544 2543 2540 2534 2528 2525 2520 2514 2508 2505 2504 2500 2500
2653 2660 2667 2673 2680 2681 2682 2684 2685 2686 2686 2687 2688 2689 2690 2690 2690 2690 2690 2690 2690 2689 2689 2688 2688 2685 2684 2680 2680 2680 2680 2673 2672 2669 2668 2668 2672 2680 2686 2688 2692 2694 2700 2707 2713 2720 2728 2733 2740 2750 2760 2764 2768 2769 2770 2768 2767 2767 2767 2767 2767 2766 2767 2773 2775 2780 2784 2787 2791 2795 2797 2800 2804 2805 2805 2805 2800 2795 2796 2796 2800 2807 2812 2820 2825 2828 2834 2840 2850 2860 2867 2872 2880 2884 2888 2892 2896 2900 2905 2910 2915 2920 2927 2933 2940 2946 2952 2955 2960 2965 2967 2973 2975 2980 2983 2985 2988 2990 2992 2995 2996 3000 3007 3013 3020 3026 3032 3035 3040 3043 3045 3048 3050 3052 3055 3056 3056 3060 3063 3065 3067 3067 3068 3069 3072 3073 3073 3074 3080 3080 3080 3090 3100 3110 3120 3125 3128 3134 3140 3145 3150 3155 3160 3164 3167 3171 3175 3177 3180 3187 3193 3200 3204 3207 3210 3213 3216 3220 3225 3228 3233 3240 3246 3250 3254 3260 3266 3270 3270 3270 3260 3250 3240 3230 3220 3213 3208 3200 3190 3180 3170 3160 3140 3120 3110 3100 3095 3090 3085 3080 3070 3060 3055 3051 3046 3044 3040 3040 3047 3050 3053 3054 3060 3064 3064 3064 3064 3064 3060 3055 3054 3053 3053 3053 3052 3054 3060 3060 3065 3066 3067 3067 3067 3067 3067 3067 3060 3060 3055 3054 3052 3048 3046 3040 3040 3034 3032 3028 3020 3020 3014 3010 3007 3000 3000 3000 2993 2993 2993 2992 2988 2980 2980 2980 2970 2970 2970 2970 2960 2960 2950 2950 2948 2946 2940 2930 2920 2915 2912 2906 2900 2897 2894 2893 2892 2888 2887 2884 2883 2880 2870 2868 2866 2860 2852 2847 2845 2840 2835 2834 2832 2827 2825 2820 2814 2810 2806 2805 2800 2795 2793 2787 2785 2784 2780 2776 2775 2772 2770 2768 2767 2764 2763 2760 2753 2747 2740 2735 2732 2726 2720 2712 2707 2700 2693 2687 2680 2676 2673 2670 2666 2664 2660 2656 2653 2650 2647 2644 2640 2633 2627 2620 2615 2610 2605 2600 2593 2587 2580 2574 2568 2565 2560 2555 2553 2553 2553 2553 2552 2550 2552 2553 2553 2553 2553 2552 2549 2545 2540 2535 2532 2526 2520 2516 2513 2511 2509 2507 2505 2505
2652 2660 2667 2672 2680 2681 2682 2683 2685 2686 2687 2688 2689 2689 2691 2691 2691 2691 2691 2691 2691 2692 2691 2691 2690 2689 2686 2685 2685 2685 2685 2680 2675 2673 2674 2673 2680 2686 2690 2694 2695 2700 2700 2707 2713 2720 2730 2740 2747 2752 2760 2765 2769 2774 2775 2774 2773 2773 2773 2773 2773 2772 2773 2775 2780 2783 2785 2789 2793 2796 2800 2804 2807 2809 2810 2808 2807 2800 2800 2800 2800 2800 2808 2813 2820 2827 2833 2840 2848 2853 2860 2870 2880 2884 2888 2892 2896 2900 2905 2910 2915 2920 2927 2933 2940 2948 2953 2960 2964 2967 2971 2975 2980 2983 2984 2987 2989 2992 2995 2997 3000 3005 3008 3014 3020 3028 3033 3040 3043 3044 3047 3049 3052 3055 3057 3060 3060 3060 3064 3067 3070 3071 3072 3074 3075 3080 3080 3080 3087 3087 3087 3092 3100 3108 3113 3120 3127 3133 3140 3146 3152 3155 3160 3164 3168 3172 3176 3180 3185 3188 3194 3200 3205 3209 3213 3216 3220 3225 3227 3233 3235 3240 3247 3253 3260 3264 3266 3268 3266 3260 3250 3240 3233 3228 3220 3212 3207 3200 3190 3180 3170 3160 3140 3120 3110 3100 3094 3088 3085 3080 3070 3060 3056 3052 3049 3047 3046 3048 3052 3054 3060 3060 3065 3066 3068 3068 3068 3066 3065 3060 3060 3060 3060 3060 3055 3060 3064 3065 3067 3072 3073 3073 3073 3073 3073 3072 3070 3068 3060 3060 3055 3054 3050 3047 3046 3040 3040 3032 3028 3027 3020 3014 3012 3010 3008 3007 3000 3000 3000 3000 2992 2990 2990 2990 2980 2980 2980 2980 2970 2970 2960 2960 2953 2950 2946 2940 2930 2920 2913 2908 2900 2897 2897 2896 2893 2892 2888 2887 2884 2883 2880 2873 2868 2860 2854 2852 2848 2846 2840 2840 2835 2833 2827 2825 2820 2814 2812 2807 2805 2800 2795 2791 2788 2785 2784 2780 2777 2775 2772 2772 2768 2766 2763 2760 2754 2750 2746 2740 2733 2727 2720 2713 2707 2700 2694 2688 2685 2680 2676 2672 2669 2665 2663 2660 2656 2652 2648 2644 2640 2633 2627 2620 2615 2610 2605 2600 2593 2587 2580 2575 2571 2567 2565 2560 2555 2560 2560 2560 2560 2560 2560 2560 2560 2560 2560 2554 2550 2546 2540 2535 2530 2525 2520 2516 2516 2515 2513 2511 2510 2510
2648 2652 2660 2670 2680 2681 2682 2683 2684 2685 2687 2688 2689 2690 2691 2692 2692 2692 2692 2693 2693 2693 2694 2694 2693 2692 2691 2690 2690 2690 2688 2686 2680 2676 2680 2680 2686 2690 2694 2700 2700 2706 2708 2712 2714 2720 2730 2740 2748 2753 2760 2766 2772 2775 2780 2780 2780 2780 2780 2780 2780 2775 2775 2780 2783 2784 2787 2790 2793 2797 2800 2805 2809 2813 2815 2814 2812 2808 2807 2806 2800 2805 2808 2814 2820 2827 2833 2840 2847 2852 2860 2870 2880 2884 2888 2892 2896 2900 2905 2910 2915 2920 2927 2933 2940 2950 2960 2964 2966 2970 2973 2976 2980 2983 2986 2988 2991 2994 2997 3000 3004 3007 3011 3015 3020 3030 3040 3043 3044 3047 3048 3052 3054 3057 3060 3063 3063 3064 3065 3069 3072 3075 3076 3076 3080 3085 3086 3088 3092 3093 3093 3094 3100 3107 3113 3120 3127 3133 3140 3147 3152 3160 3160 3165 3169 3174 3176 3180 3185 3190 3195 3200 3206 3212 3215 3220 3224 3226 3231 3235 3240 3245 3248 3254 3260 3264 3267 3267 3265 3260 3250 3240 3232 3227 3220 3210 3200 3190 3180 3170 3160 3143 3137 3120 3110 3100 3093 3087 3080 3073 3068 3060 3056 3053 3050 3050 3052 3053 3060 3060 3067 3067 3068 3071 3072 3072 3072 3071 3068 3067 3066 3065 3064 3064 3060 3064 3067 3069 3073 3075 3080 3080 3080 3080 3080 3080 3080 3072 3070 3068 3060 3060 3054 3053 3050 3047 3046 3040 3033 3032 3028 3020 3020 3020 3013 3012 3010 3010 3008 3006 3000 3000 3000 3000 2990 2990 2990 2988 2980 2980 2970 2968 2960 2954 2950 2947 2940 2930 2920 2912 2908 2900 2900 2897 2896 2893 2892 2888 2887 2884 2883 2880 2872 2868 2860 2855 2854 2850 2846 2845 2840 2835 2833 2827 2825 2820 2815 2812 2806 2800 2796 2794 2791 2789 2785 2784 2780 2777 2776 2773 2770 2767 2764 2763 2760 2753 2747 2740 2733 2728 2720 2713 2707 2700 2695 2690 2685 2680 2676 2673 2670 2667 2663 2660 2656 2654 2649 2645 2640 2633 2627 2620 2615 2610 2605 2600 2593 2587 2580 2576 2573 2571 2568 2567 2560 2567 2567 2567 2567 2567 2567 2566 2565 2564 2563 2560 2550 2540 2536 2534 2530 2527 2520 2520 2520 2520 2516 2515 2515 2515
2640 2650 2660 2668 2672 2680 2681 2683 2684 2685 2687 2688 2689 2690 2691 2692 2693 2693 2693 2694 2694 2695 2696 2697 2696 2696 2695 2695 2695 2695 2694 2690 2686 2680 2685 2686 2690 2694 2700 2705 2706 2710 2713 2720 2720 2728 2732 2740 2750 2760 2766 2770 2774 2780 2784 2785 2786 2787 2787 2787 2787 2780 2780 2780 2784 2786 2788 2791 2794 2797 2800 2806 2812 2815 2820 2820 2820 2813 2813 2810 2807 2807 2811 2815 2820 2826 2832 2835 2840 2850 2860 2870 2880 2884 2886 2891 2895 2900 2905 2908 2914 2920 2927 2932 2940 2950 2960 2964 2968 2972 2976 2980 2983 2984 2987 2989 2992 2994 2997 3000 3005 3009 3013 3016 3020 3030 3040 3043 3045 3048 3051 3053 3056 3057 3060 3063 3066 3067 3069 3071 3075 3077 3080 3080 3086 3088 3092 3093 3100 3100 3100 3100 3105 3108 3114 3120 3126 3130 3134 3140 3150 3160 3165 3167 3173 3175 3180 3180 3186 3192 3195 3200 3207 3213 3220 3224 3225 3229 3232 3236 3240 3246 3252 3255 3260 3265 3268 3267 3264 3260 3250 3240 3230 3220 3212 3208 3200 3190 3180 3170 3160 3140 3120 3113 3108 3100 3092 3087 3080 3073 3067 3060 3057 3054 3053 3054 3055 3060 3068 3070 3072 3073 3074 3075 3076 3076 3076 3075 3074 3073 3072 3069 3068 3066 3064 3067 3070 3073 3075 3080 3084 3085 3085 3085 3085 3085 3085 3080 3080 3072 3068 3066 3060 3060 3054 3053 3050 3046 3040 3040 3032 3028 3027 3027 3020 3020 3020 3020 3013 3010 3007 3007 3007 3006 3000 3000 3000 2992 2990 2988 2980 2972 2970 2960 2954 2952 2948 2940 2930 2920 2912 2907 2905 2900 2897 2896 2893 2892 2888 2887 2885 2883 2880 2872 2868 2860 2860 2854 2850 2847 2844 2840 2835 2833 2827 2825 2820 2814 2810 2806 2800 2796 2795 2791 2789 2785 2784 2780 2777 2774 2772 2768 2766 2763 2760 2754 2750 2746 2740 2730 2720 2713 2707 2700 2695 2692 2686 2680 2677 2674 2671 2668 2665 2663 2660 2655 2652 2646 2640 2633 2627 2620 2615 2612 2606 2600 2594 2590 2586 2580 2576 2575 2574 2572 2570 2572 2573 2573 2573 2573 2573 2572 2567 2565 2560 2553 2548 2540 2536 2535 2534 2532 2530 2528 2526 2525 2520 2520 2520 2520
2640 2648 2653 2660 2670 2680 2682 2682 2684 2685 2686 2688 2689 2690 2691 2693 2693 2694 2694 2695 2695 2697 2697 2700 2700 2700 2700 2700 2700 2700 2700 2694 2690 2686 2688 2692 2694 2700 2706 2708 2712 2714 2720 2728 2730 2732 2740 2747 2752 2760 2768 2773 2780 2784 2787 2789 2792 2793 2793 2793 2792 2790 2788 2786 2787 2788 2789 2792 2794 2797 2800 2807 2813 2820 2823 2823 2824 2820 2820 2814 2813 2813 2815 2816 2820 2825 2830 2835 2840 2850 2860 2868 2873 2880 2885 2889 2894 2896 2900 2906 2912 2915 2920 2930 2940 2950 2960 2964 2968 2972 2976 2980 2983 2985 2988 2991 2993 2996 2997 3000 3005 3010 3015 3020 3027 3032 3040 3043 3046 3048 3051 3054 3057 3060 3063 3065 3068 3070 3072 3075 3076 3080 3085 3086 3090 3094 3095 3100 3105 3105 3105 3105 3106 3110 3113 3116 3120 3130 3140 3147 3152 3160 3166 3172 3175 3180 3184 3185 3188 3194 3200 3205 3208 3214 3220 3224 3228 3231 3235 3236 3240 3248 3253 3260 3266 3268 3271 3269 3265 3260 3250 3240 3230 3220 3210 3200 3193 3188 3180 3170 3160 3140 3120 3113 3107 3100 3090 3080 3075 3072 3066 3060 3057 3057 3057 3056 3060 3070 3072 3080 3080 3080 3080 3080 3080 3080 3080 3080 3080 3080 3075 3074 3072 3070 3068 3070 3073 3076 3080 3084 3087 3089 3090 3090 3090 3090 3088 3086 3085 3080 3073 3070 3067 3066 3060 3060 3054 3050 3047 3047 3040 3033 3033 3032 3030 3028 3027 3027 3020 3014 3013 3013 3013 3010 3007 3006 3005 3000 3000 2992 2988 2980 2980 2970 2960 2960 2952 2948 2940 2920 2914 2912 2907 2905 2900 2897 2896 2893 2892 2889 2888 2885 2883 2880 2872 2868 2860 2855 2853 2850 2847 2844 2840 2835 2833 2827 2825 2820 2814 2810 2806 2800 2796 2795 2791 2788 2784 2780 2777 2776 2773 2771 2768 2765 2763 2760 2753 2747 2740 2730 2720 2714 2708 2705 2700 2693 2687 2680 2677 2675 2672 2669 2667 2665 2663 2660 2653 2647 2640 2634 2628 2625 2620 2614 2610 2606 2600 2594 2588 2585 2580 2580 2580 2580 2580 2580 2580 2580 2580 2580 2580 2572 2567 2560 2555 2553 2547 2545 2540 2540 2540 2540 2540 2533 2532 2527 2525 2524 2523 2523
2640 2647 2653 2660 2668 2673 2680 2682 2683 2685 2686 2688 2689 2690 2692 2693 2694 2695 2696 2696 2697 2698 2700 2705 2706 2707 2707 2707 2707 2706 2705 2700 2694 2692 2694 2695 2700 2706 2710 2714 2715 2720 2730 2732 2740 2740 2745 2748 2754 2760 2770 2780 2784 2787 2790 2793 2795 2800 2800 2800 2800 2800 2793 2792 2790 2790 2790 2792 2795 2797 2800 2807 2813 2820 2824 2827 2826 2825 2825 2820 2820 2815 2820 2820 2820 2827 2830 2835 2840 2850 2860 2867 2873 2880 2884 2888 2892 2896 2900 2907 2913 2920 2927 2932 2940 2950 2960 2964 2966 2971 2975 2980 2983 2986 2989 2991 2994 2997 3000 3004 3006 3011 3015 3020 3027 3033 3040 3043 3045 3048 3051 3054 3057 3060 3063 3066 3069 3072 3075 3077 3080 3085 3087 3092 3094 3100 3100 3105 3107 3110 3110 3110 3111 3112 3116 3120 3127 3132 3140 3147 3153 3160 3167 3173 3180 3184 3187 3189 3193 3195 3200 3206 3212 3215 3220 3225 3229 3234 3236 3240 3247 3252 3260 3266 3270 3274 3275 3272 3266 3260 3250 3240 3230 3220 3210 3200 3192 3187 3180 3160 3147 3137 3120 3113 3107 3100 3090 3080 3075 3071 3067 3067 3060 3060 3060 3060 3070 3080 3080 3085 3085 3086 3087 3087 3087 3087 3087 3087 3087 3086 3080 3076 3076 3074 3072 3074 3076 3080 3080 3085 3089 3093 3095 3095 3095 3095 3094 3092 3088 3086 3080 3074 3073 3070 3067 3067 3060 3054 3053 3052 3050 3040 3040 3040 3040 3033 3033 3032 3028 3020 3020 3020 3020 3014 3013 3012 3008 3006 3005 3000 2992 2988 2986 2980 2970 2968 2960 2952 2947 2940 2920 2915 2913 2907 2905 2900 2897 2896 2894 2892 2890 2888 2885 2883 2880 2872 2868 2860 2856 2853 2850 2847 2844 2840 2835 2833 2827 2825 2820 2814 2810 2806 2800 2796 2794 2790 2787 2784 2780 2777 2775 2772 2769 2766 2763 2760 2753 2747 2740 2730 2720 2715 2710 2705 2700 2694 2688 2685 2680 2677 2674 2672 2669 2667 2664 2660 2653 2648 2640 2635 2633 2627 2625 2620 2613 2608 2600 2595 2591 2586 2585 2584 2584 2585 2585 2585 2585 2584 2584 2583 2580 2570 2560 2557 2555 2551 2549 2545 2544 2543 2543 2542 2542 2540 2534 2530 2526 2524 2523 2520
2640 2647 2653 2660 2667 2672 2680 2682 2684 2685 2687 2688 2690 2691 2692 2694 2694 2696 2696 2698 2698 2700 2705 2707 2712 2713 2713 2713 2713 2712 2707 2705 2700 2695 2700 2700 2700 2708 2713 2720 2720 2730 2740 2740 2744 2745 2747 2753 2755 2760 2780 2784 2787 2790 2793 2796 2800 2804 2804 2804 2804 2804 2800 2795 2794 2792 2792 2793 2795 2798 2800 2807 2812 2820 2824 2828 2830 2830 2828 2827 2827 2820 2827 2827 2828 2832 2834 2835 2840 2850 2860 2867 2873 2880 2885 2889 2894 2896 2900 2908 2913 2920 2928 2933 2940 2948 2953 2960 2965 2970 2975 2980 2983 2986 2989 2991 2994 2997 3000 3004 3008 3012 3016 3020 3026 3032 3035 3040 3044 3047 3051 3055 3057 3060 3063 3067 3070 3073 3077 3080 3085 3087 3093 3095 3100 3104 3105 3107 3113 3115 3115 3115 3115 3116 3116 3120 3127 3133 3140 3147 3153 3160 3167 3173 3180 3185 3189 3193 3195 3200 3200 3208 3213 3220 3224 3227 3231 3235 3240 3246 3250 3254 3260 3267 3273 3280 3280 3273 3267 3260 3250 3240 3220 3210 3200 3193 3188 3180 3170 3160 3147 3133 3120 3112 3107 3100 3090 3080 3076 3073 3073 3072 3070 3080 3080 3080 3080 3085 3085 3087 3090 3092 3093 3093 3093 3093 3093 3093 3093 3090 3086 3080 3080 3076 3076 3076 3080 3085 3086 3088 3093 3095 3100 3100 3100 3100 3100 3095 3094 3090 3087 3080 3080 3074 3073 3072 3070 3060 3060 3060 3060 3060 3050 3050 3050 3040 3040 3040 3032 3030 3028 3026 3025 3020 3020 3015 3014 3012 3008 3006 3000 2993 2990 2986 2980 2970 2960 2953 2948 2940 2930 2920 2915 2913 2908 2906 2900 2897 2897 2895 2892 2890 2888 2885 2884 2880 2872 2868 2860 2856 2853 2850 2847 2844 2840 2835 2833 2827 2825 2820 2814 2810 2806 2800 2796 2793 2790 2786 2784 2780 2777 2773 2770 2767 2764 2760 2754 2748 2745 2740 2720 2715 2710 2705 2700 2695 2690 2685 2680 2677 2676 2674 2672 2669 2666 2664 2660 2652 2647 2640 2635 2631 2627 2624 2620 2610 2600 2596 2592 2591 2589 2588 2588 2589 2590 2590 2589 2588 2587 2585 2583 2580 2560 2557 2556 2555 2551 2549 2547 2546 2544 2543 2542 2540 2532 2527 2525 2520 2520 2513
2640 2646 2652 2655 2660 2670 2680 2682 2684 2685 2687 2688 2690 2691 2693 2694 2696 2696 2698 2698 2700 2705 2707 2713 2715 2720 2720 2720 2720 2715 2713 2708 2706 2700 2705 2706 2708 2712 2720 2728 2730 2740 2744 2744 2747 2749 2753 2755 2760 2770 2780 2785 2789 2793 2796 2800 2804 2806 2808 2808 2808 2806 2804 2800 2796 2795 2794 2793 2795 2797 2798 2800 2810 2820 2825 2829 2834 2835 2834 2833 2832 2830 2832 2833 2833 2840 2840 2840 2850 2860 2865 2868 2874 2880 2886 2892 2895 2900 2908 2912 2920 2927 2932 2940 2947 2952 2960 2964 2966 2971 2975 2980 2983 2986 2989 2992 2994 2997 3000 3004 3008 3012 3016 3020 3025 3030 3035 3040 3044 3046 3051 3055 3060 3063 3064 3068 3071 3074 3077 3080 3085 3090 3095 3100 3104 3107 3109 3113 3115 3120 3120 3120 3120 3120 3120 3120 3127 3133 3140 3147 3153 3160 3167 3173 3180 3185 3190 3195 3200 3200 3207 3212 3220 3224 3227 3230 3233 3236 3240 3247 3253 3260 3266 3270 3274 3280 3281 3280 3260 3250 3240 3230 3220 3210 3200 3193 3187 3180 3170 3160 3147 3133 3120 3110 3100 3094 3090 3086 3080 3076 3075 3080 3080 3087 3087 3087 3087 3088 3090 3093 3095 3095 3100 3100 3100 3100 3100 3100 3100 3094 3090 3086 3085 3080 3080 3080 3085 3087 3092 3094 3095 3100 3105 3105 3105 3105 3105 3100 3100 3094 3092 3088 3087 3080 3080 3080 3080 3070 3070 3070 3070 3068 3060 3060 3060 3060 3050 3048 3040 3040 3033 3032 3028 3027 3027 3020 3020 3015 3014 3010 3007 3000 2994 2990 2986 2980 2970 2960 2950 2940 2932 2928 2920 2915 2914 2910 2906 2900 2900 2897 2895 2892 2890 2889 2886 2884 2880 2872 2868 2860 2856 2853 2850 2847 2844 2840 2835 2833 2827 2825 2820 2814 2808 2805 2800 2796 2792 2788 2784 2780 2777 2775 2771 2768 2764 2760 2755 2752 2746 2740 2720 2715 2710 2705 2700 2695 2693 2687 2685 2680 2677 2677 2675 2672 2669 2665 2660 2653 2647 2640 2636 2633 2629 2625 2620 2610 2600 2596 2596 2595 2594 2592 2592 2594 2595 2595 2594 2591 2588 2584 2580 2573 2567 2560 2560 2556 2553 2550 2546 2544 2543 2540 2540 2530 2528 2520 2520 2513 2512 2508
2640 2645 2650 2655 2660 2670 2680 2682 2683 2685 2687 2689 2690 2692 2693 2695 2696 2698 2698 2700 2704 2707 2711 2715 2720 2723 2724 2724 2724 2720 2715 2714 2710 2706 2707 2710 2713 2720 2727 2732 2740 2744 2745 2748 2750 2753 2755 2760 2767 2772 2780 2785 2790 2795 2800 2804 2807 2810 2812 2812 2812 2810 2807 2804 2800 2797 2796 2795 2794 2796 2798 2800 2810 2820 2826 2832 2835 2840 2840 2840 2840 2840 2840 2840 2840 2847 2848 2850 2860 2865 2867 2873 2875 2880 2888 2893 2900 2907 2912 2920 2926 2930 2934 2940 2947 2953 2960 2964 2968 2972 2976 2980 2983 2986 2989 2993 2996 2997 3000 3004 3008 3012 3016 3020 3025 3029 3034 3036 3040 3045 3048 3054 3060 3063 3066 3068 3071 3074 3077 3080 3085 3090 3095 3100 3105 3109 3113 3115 3120 3124 3125 3126 3127 3127 3127 3127 3130 3134 3140 3147 3153 3160 3167 3173 3180 3186 3192 3195 3200 3206 3210 3214 3220 3225 3229 3233 3236 3240 3246 3250 3254 3260 3267 3273 3280 3281 3281 3280 3260 3250 3240 3230 3220 3210 3200 3193 3187 3180 3170 3160 3147 3133 3120 3110 3100 3095 3091 3087 3086 3080 3080 3090 3090 3092 3093 3093 3093 3094 3095 3095 3100 3100 3105 3105 3105 3105 3105 3105 3104 3100 3094 3090 3087 3084 3084 3085 3087 3093 3095 3100 3100 3107 3108 3110 3110 3110 3108 3107 3107 3100 3100 3093 3092 3088 3086 3085 3085 3080 3080 3080 3080 3072 3070 3070 3068 3067 3060 3052 3050 3050 3040 3035 3034 3033 3032 3028 3027 3020 3020 3014 3012 3008 3000 2994 2990 2987 2980 2970 2960 2950 2940 2932 2930 2920 2920 2914 2910 2906 2905 2900 2897 2895 2893 2892 2890 2887 2884 2880 2872 2868 2860 2856 2853 2850 2847 2844 2840 2835 2832 2826 2820 2815 2812 2806 2800 2796 2793 2789 2785 2783 2780 2776 2774 2770 2766 2764 2760 2753 2747 2740 2720 2715 2713 2707 2705 2700 2695 2691 2688 2687 2680 2680 2676 2675 2672 2666 2660 2654 2648 2645 2640 2635 2631 2627 2625 2620 2610 2600 2600 2600 2596 2596 2596 2596 2600 2600 2596 2594 2589 2585 2580 2574 2568 2565 2564 2560 2554 2548 2545 2540 2540 2530 2530 2520 2520 2514 2512 2508 2507 2500
2640 2645 2650 2655 2660 2668 2673 2680 2682 2685 2687 2689 2691 2692 2694 2695 2697 2698 2700 2700 2705 2709 2713 2716 2720 2724 2727 2728 2726 2725 2720 2720 2714 2712 2711 2713 2715 2720 2727 2733 2740 2744 2748 2751 2754 2756 2760 2760 2767 2773 2780 2785 2790 2795 2800 2805 2809 2813 2816 2816 2816 2813 2810 2807 2804 2800 2798 2797 2796 2796 2798 2800 2810 2820 2828 2833 2840 2844 2844 2845 2846 2848 2850 2850 2850 2852 2853 2860 2860 2866 2872 2875 2880 2887 2892 2900 2905 2908 2914 2920 2927 2933 2940 2945 2948 2954 2960 2964 2968 2972 2976 2980 2983 2987 2990 2993 2997 3000 3004 3006 3010 3014 3016 3020 3024 3028 3031 3035 3037 3040 3047 3053 3060 3063 3066 3069 3071 3074 3077 3080 3085 3090 3095 3100 3106 3112 3115 3120 3124 3127 3129 3132 3133 3133 3133 3133 3134 3140 3140 3148 3153 3160 3167 3173 3180 3187 3193 3200 3206 3210 3214 3220 3224 3226 3231 3235 3240 3246 3250 3254 3260 3265 3268 3274 3280 3281 3280 3270 3260 3250 3240 3230 3220 3200 3194 3190 3186 3180 3160 3154 3150 3130 3120 3110 3100 3096 3092 3091 3090 3090 3100 3100 3100 3100 3100 3100 3100 3100 3100 3100 3107 3107 3108 3110 3110 3110 3110 3109 3105 3100 3095 3093 3090 3088 3088 3089 3093 3095 3100 3106 3108 3112 3114 3115 3115 3115 3114 3113 3112 3108 3107 3100 3100 3093 3092 3090 3088 3087 3086 3085 3085 3080 3080 3080 3073 3072 3068 3060 3060 3060 3050 3040 3040 3040 3040 3033 3032 3028 3026 3020 3020 3012 3008 3000 2993 2990 2980 2972 2968 2960 2950 2940 2940 2930 2930 2920 2914 2912 2907 2905 2900 2897 2896 2896 2893 2890 2887 2884 2880 2872 2868 2860 2856 2853 2850 2846 2844 2840 2834 2828 2825 2820 2813 2807 2800 2797 2793 2790 2787 2784 2783 2780 2776 2772 2768 2764 2760 2753 2747 2740 2730 2720 2715 2712 2706 2700 2696 2695 2694 2692 2690 2690 2680 2680 2673 2668 2660 2655 2650 2645 2640 2636 2633 2631 2627 2625 2620 2620 2610 2608 2600 2600 2600 2600 2603 2603 2600 2595 2592 2586 2580 2575 2570 2565 2560 2554 2550 2546 2540 2532 2530 2520 2520 2515 2514 2510 2507 2500 2500 2498
2640 2646 2652 2655 2660 2670 2680 2682 2684 2686 2688 2690 2692 2694 2695 2697 2698 2700 2704 2705 2707 2711 2715 2720 2724 2727 2730 2732 2731 2728 2727 2727 2720 2715 2715 2716 2720 2726 2730 2734 2740 2745 2749 2754 2756 2760 2764 2765 2768 2774 2780 2785 2790 2795 2800 2806 2812 2815 2820 2820 2820 2816 2813 2810 2807 2805 2800 2798 2798 2798 2798 2800 2810 2820 2830 2840 2844 2845 2848 2849 2852 2853 2860 2860 2860 2860 2860 2860 2866 2870 2874 2880 2885 2888 2894 2900 2905 2910 2915 2920 2927 2933 2940 2945 2950 2955 2960 2964 2968 2972 2976 2980 2984 2987 2991 2995 2997 3000 3004 3008 3012 3016 3020 3023 3025 3029 3033 3036 3040 3045 3048 3054 3060 3063 3066 3069 3071 3074 3077 3080 3085 3090 3095 3100 3107 3113 3120 3124 3127 3130 3133 3135 3140 3140 3140 3140 3140 3145 3147 3152 3160 3166 3170 3174 3180 3187 3193 3200 3208 3213 3220 3224 3227 3230 3232 3236 3240 3247 3253 3260 3265 3267 3273 3275 3280 3281 3280 3260 3253 3248 3240 3230 3220 3200 3193 3187 3180 3170 3160 3152 3147 3140 3120 3110 3100 3096 3095 3095 3094 3100 3105 3105 3105 3105 3105 3105 3105 3106 3108 3110 3112 3113 3114 3115 3115 3115 3115 3113 3107 3105 3100 3096 3094 3092 3092 3094 3095 3100 3106 3110 3113 3120 3120 3120 3120 3120 3120 3120 3120 3113 3112 3108 3106 3100 3095 3095 3094 3093 3092 3090 3088 3086 3085 3084 3080 3080 3072 3070 3068 3067 3060 3050 3050 3050 3048 3040 3040 3033 3030 3027 3026 3020 3012 3008 3000 3000 2990 2980 2972 2970 2960 2950 2948 2940 2940 2930 2920 2915 2913 2908 2907 2900 2900 2900 2896 2893 2890 2887 2884 2880 2872 2868 2860 2856 2852 2848 2844 2840 2835 2832 2826 2820 2813 2808 2800 2797 2794 2792 2788 2786 2783 2780 2776 2772 2768 2764 2760 2753 2747 2740 2732 2728 2720 2714 2710 2706 2700 2700 2700 2700 2700 2700 2690 2688 2680 2670 2660 2655 2653 2647 2645 2640 2636 2635 2633 2628 2627 2626 2620 2612 2610 2608 2606 2605 2605 2604 2603 2600 2593 2587 2580 2575 2570 2565 2560 2552 2547 2540 2532 2528 2520 2516 2515 2513 2508 2506 2500 2498 2498 2497
2640 2647 2653 2660 2667 2672 2680 2683 2685 2687 2690 2691 2693 2695 2697 2698 2700 2704 2707 2709 2711 2713 2716 2720 2725 2729 2733 2736 2735 2734 2733 2732 2730 2720 2720 2720 2720 2728 2733 2740 2740 2745 2750 2755 2760 2763 2765 2768 2771 2775 2780 2785 2790 2795 2800 2807 2813 2820 2822 2822 2822 2820 2816 2813 2811 2807 2805 2800 2800 2800 2800 2807 2812 2820 2830 2840 2844 2848 2851 2854 2855 2860 2863 2864 2864 2865 2866 2867 2870 2874 2880 2880 2885 2890 2895 2900 2905 2910 2915 2920 2927 2933 2940 2945 2950 2955 2960 2964 2968 2972 2976 2980 2984 2988 2992 2996 3000 3004 3006 3010 3014 3016 3020 3023 3027 3030 3033 3037 3040 3045 3050 3055 3060 3063 3066 3069 3071 3074 3077 3080 3085 3090 3095 3100 3107 3113 3120 3125 3129 3133 3136 3140 3144 3144 3145 3145 3146 3148 3152 3154 3160 3167 3173 3180 3185 3188 3194 3200 3210 3220 3224 3226 3230 3233 3236 3236 3240 3248 3253 3260 3265 3270 3275 3280 3282 3281 3280 3260 3252 3247 3240 3230 3220 3200 3193 3187 3180 3170 3160 3150 3140 3130 3120 3112 3107 3100 3097 3100 3100 3106 3108 3110 3110 3110 3110 3110 3110 3112 3113 3120 3120 3120 3120 3120 3120 3120 3120 3115 3113 3107 3105 3100 3096 3096 3096 3096 3100 3106 3110 3114 3120 3126 3127 3127 3127 3127 3127 3127 3127 3120 3120 3113 3110 3107 3100 3100 3100 3100 3095 3095 3094 3092 3089 3087 3085 3085 3080 3080 3073 3072 3068 3060 3060 3060 3052 3048 3046 3040 3034 3033 3030 3026 3020 3012 3008 3007 3000 2990 2980 2980 2970 2960 2952 2950 2948 2940 2930 2920 2915 2914 2912 2910 2908 2906 2900 2896 2893 2890 2887 2884 2880 2870 2860 2856 2854 2850 2847 2844 2840 2834 2830 2826 2820 2810 2800 2797 2796 2793 2790 2787 2784 2780 2776 2774 2769 2765 2760 2754 2750 2746 2740 2732 2727 2720 2714 2710 2707 2707 2707 2707 2706 2705 2700 2692 2688 2680 2670 2660 2655 2653 2647 2645 2640 2640 2635 2634 2633 2630 2626 2620 2620 2613 2610 2608 2605 2603 2600 2594 2590 2586 2580 2574 2568 2565 2560 2550 2540 2533 2528 2520 2516 2514 2511 2507 2505 2500 2498 2498 2496 2495
2646 2650 2654 2660 2667 2673 2680 2683 2686 2688 2690 2693 2694 2697 2698 2700 2704 2707 2710 2713 2715 2716 2720 2725 2727 2733 2735 2740 2740 2740 2740 2740 2740 2730 2730 2730 2730 2732 2740 2745 2745 2747 2753 2755 2760 2763 2767 2770 2773 2776 2780 2785 2790 2795 2800 2807 2813 2820 2822 2824 2823 2822 2820 2816 2815 2813 2808 2806 2805 2805 2800 2807 2813 2820 2830 2840 2845 2849 2854 2856 2860 2863 2865 2867 2868 2869 2872 2873 2874 2880 2883 2884 2886 2891 2895 2900 2905 2910 2915 2920 2927 2933 2940 2945 2950 2955 2960 2964 2966 2971 2975 2980 2984 2988 2992 2996 3000 3004 3008 3012 3016 3020 3023 3025 3028 3031 3034 3037 3040 3045 3050 3055 3060 3063 3066 3069 3071 3074 3077 3080 3085 3090 3095 3100 3107 3113 3120 3126 3132 3135 3140 3144 3145 3148 3149 3150 3152 3154 3155 3160 3166 3170 3174 3180 3186 3192 3195 3200 3210 3220 3224 3228 3232 3236 3240 3240 3247 3252 3260 3265 3267 3273 3275 3280 3282 3280 3270 3260 3250 3240 3233 3228 3220 3200 3193 3187 3180 3170 3160 3150 3140 3130 3120 3114 3108 3105 3100 3105 3106 3110 3114 3115 3115 3115 3115 3115 3115 3115 3120 3127 3127 3127 3127 3127 3127 3127 3127 3120 3115 3113 3108 3106 3100 3100 3100 3100 3107 3110 3114 3120 3127 3130 3133 3133 3133 3133 3133 3133 3132 3128 3126 3120 3114 3112 3108 3107 3106 3105 3100 3100 3100 3095 3093 3091 3090 3088 3086 3085 3080 3080 3072 3070 3068 3066 3060 3053 3050 3047 3040 3040 3034 3030 3026 3020 3013 3012 3008 3000 3000 2990 2980 2970 2960 2960 2952 2948 2940 2940 2920 2920 2920 2920 2913 2910 2906 2900 2896 2893 2890 2887 2884 2880 2870 2860 2856 2853 2850 2846 2844 2840 2833 2827 2820 2812 2808 2800 2797 2795 2792 2789 2785 2784 2780 2775 2771 2767 2764 2760 2753 2747 2740 2734 2730 2727 2720 2714 2713 2713 2713 2713 2712 2707 2705 2700 2692 2688 2680 2670 2660 2655 2653 2647 2645 2644 2640 2640 2640 2634 2630 2626 2620 2615 2613 2607 2605 2600 2600 2592 2587 2580 2580 2573 2567 2560 2553 2548 2540 2533 2527 2520 2516 2512 2510 2506 2500 2499 2498 2498 2496 2496
2648 2654 2660 2666 2670 2674 2680 2683 2686 2689 2692 2694 2696 2697 2700 2704 2707 2710 2713 2716 2720 2720 2725 2727 2733 2735 2740 2742 2742 2742 2742 2742 2743 2740 2740 2740 2740 2740 2747 2748 2750 2753 2755 2760 2760 2764 2767 2770 2773 2777 2780 2785 2790 2795 2800 2807 2813 2820 2822 2824 2825 2824 2823 2820 2820 2815 2814 2812 2810 2808 2807 2810 2814 2820 2830 2840 2845 2850 2855 2860 2863 2864 2867 2869 2871 2874 2875 2880 2880 2883 2884 2887 2889 2892 2896 2900 2905 2910 2915 2920 2927 2933 2940 2945 2947 2953 2955 2960 2965 2970 2975 2980 2984 2988 2992 2996 3000 3004 3008 3012 3016 3020 3023 3026 3029 3032 3035 3037 3040 3045 3050 3055 3060 3063 3066 3069 3071 3074 3077 3080 3085 3090 3095 3100 3107 3113 3120 3127 3133 3140 3143 3145 3149 3151 3154 3155 3155 3160 3160 3160 3168 3173 3180 3180 3188 3193 3200 3208 3212 3220 3224 3228 3232 3236 3240 3246 3250 3254 3260 3266 3272 3275 3280 3282 3282 3280 3270 3260 3250 3240 3233 3227 3220 3200 3193 3187 3180 3170 3160 3150 3140 3130 3120 3115 3111 3107 3106 3108 3112 3114 3120 3120 3120 3120 3120 3120 3120 3120 3130 3132 3133 3133 3133 3133 3133 3133 3132 3130 3120 3115 3114 3110 3107 3107 3108 3110 3112 3114 3120 3130 3132 3134 3140 3140 3140 3140 3140 3140 3140 3133 3130 3127 3120 3120 3113 3113 3112 3108 3107 3107 3107 3100 3096 3095 3095 3094 3092 3088 3086 3085 3080 3080 3073 3070 3067 3060 3054 3052 3048 3046 3040 3034 3030 3026 3020 3020 3012 3008 3006 3000 2990 2980 2980 2970 2960 2952 2948 2947 2940 2940 2930 2928 2920 2914 2910 2906 2900 2896 2893 2889 2885 2880 2872 2868 2860 2856 2852 2848 2844 2840 2834 2830 2826 2820 2812 2808 2800 2797 2795 2791 2788 2784 2780 2776 2773 2769 2765 2760 2754 2750 2747 2740 2734 2732 2730 2720 2720 2720 2720 2720 2715 2713 2707 2705 2700 2692 2688 2680 2670 2660 2655 2651 2648 2645 2643 2643 2642 2640 2634 2628 2625 2620 2612 2607 2600 2595 2593 2588 2580 2576 2575 2572 2566 2560 2553 2548 2540 2533 2530 2520 2516 2515 2514 2510 2507 2500 2500 2498 2498 2497
2652 2655 2660 2667 2673 2680 2683 2684 2687 2690 2693 2696 2697 2700 2704 2707 2710 2713 2716 2720 2723 2724 2726 2731 2735 2740 2742 2742 2743 2744 2744 2745 2744 2743 2744 2745 2746 2748 2752 2754 2755 2755 2760 2763 2763 2765 2769 2772 2775 2777 2780 2785 2790 2795 2800 2807 2813 2820 2822 2825 2827 2826 2825 2824 2824 2820 2820 2815 2815 2814 2813 2814 2820 2828 2832 2840 2846 2852 2855 2860 2863 2866 2868 2871 2873 2876 2880 2882 2883 2884 2886 2888 2891 2893 2896 2900 2905 2910 2915 2920 2926 2932 2935 2940 2945 2948 2954 2960 2965 2970 2975 2980 2984 2986 2991 2995 3000 3004 3008 3012 3016 3020 3023 3027 3030 3033 3037 3040 3044 3046 3051 3055 3060 3063 3066 3069 3071 3074 3077 3080 3085 3090 3095 3100 3107 3113 3120 3127 3133 3140 3144 3147 3151 3155 3156 3160 3160 3165 3166 3168 3172 3180 3186 3188 3192 3200 3207 3212 3220 3224 3227 3230 3234 3236 3240 3248 3253 3260 3266 3270 3274 3280 3282 3283 3282 3280 3270 3260 3250 3240 3233 3227 3220 3200 3193 3187 3180 3170 3160 3150 3140 3130 3120 3116 3112 3111 3112 3114 3115 3120 3127 3128 3130 3130 3130 3140 3140 3140 3140 3140 3140 3140 3140 3140 3140 3140 3140 3140 3130 3120 3120 3114 3113 3113 3113 3120 3120 3120 3130 3140 3140 3140 3147 3147 3147 3147 3147 3147 3147 3140 3134 3132 3130 3130 3120 3120 3115 3114 3113 3113 3112 3110 3100 3100 3100 3100 3095 3094 3092 3087 3085 3085 3080 3074 3072 3068 3060 3060 3053 3050 3046 3040 3034 3030 3026 3025 3020 3013 3010 3006 3000 2990 2987 2980 2970 2960 2953 2952 2948 2946 2940 2932 2928 2920 2914 2910 2906 2900 2895 2891 2887 2884 2880 2870 2860 2856 2854 2850 2847 2845 2840 2834 2830 2826 2820 2812 2807 2800 2796 2794 2790 2787 2784 2780 2775 2773 2767 2765 2760 2754 2752 2748 2740 2740 2740 2740 2730 2730 2728 2726 2720 2715 2713 2707 2705 2700 2690 2680 2670 2660 2656 2653 2650 2648 2646 2645 2642 2640 2632 2627 2620 2612 2608 2600 2596 2594 2590 2586 2580 2576 2572 2570 2567 2560 2560 2552 2548 2540 2540 2540 2520 2520 2520 2514 2512 2508 2506 2500 2500 2498
2654 2660 2660 2667 2673 2680 2683 2686 2688 2692 2694 2697 2700 2704 2707 2710 2713 2716 2720 2723 2724 2727 2729 2732 2736 2740 2742 2743 2745 2745 2746 2746 2746 2746 2747 2749 2752 2753 2760 2760 2760 2760 2763 2764 2766 2768 2771 2775 2777 2780 2784 2786 2791 2795 2800 2807 2813 2820 2823 2825 2827 2828 2828 2827 2826 2825 2825 2820 2820 2820 2820 2820 2830 2832 2840 2845 2848 2854 2860 2862 2864 2866 2869 2872 2874 2877 2880 2882 2884 2886 2887 2890 2892 2894 2897 2900 2905 2910 2915 2920 2925 2929 2933 2936 2940 2947 2953 2960 2965 2969 2974 2976 2980 2985 2990 2995 3000 3004 3008 3012 3016 3020 3024 3027 3031 3035 3037 3040 3044 3048 3052 3056 3060 3063 3066 3069 3071 3074 3077 3080 3085 3090 3095 3100 3107 3113 3120 3127 3133 3140 3144 3148 3152 3156 3160 3164 3165 3167 3172 3173 3180 3185 3188 3193 3200 3206 3210 3214 3220 3225 3229 3233 3236 3240 3247 3252 3260 3266 3270 3274 3280 3283 3283 3283 3282 3280 3270 3260 3250 3240 3233 3227 3220 3200 3193 3188 3180 3170 3160 3150 3140 3130 3120 3116 3116 3115 3115 3120 3120 3130 3132 3133 3140 3140 3140 3145 3145 3146 3147 3147 3147 3147 3147 3147 3147 3147 3146 3145 3140 3140 3130 3120 3120 3120 3120 3130 3140 3140 3140 3147 3147 3148 3152 3153 3153 3153 3153 3153 3152 3148 3140 3140 3140 3140 3130 3130 3120 3120 3120 3120 3120 3120 3120 3120 3120 3110 3100 3100 3095 3093 3090 3087 3085 3080 3080 3072 3068 3067 3060 3054 3050 3046 3040 3034 3032 3027 3025 3020 3013 3008 3000 2993 2992 2988 2980 2970 2960 2960 2953 2950 2947 2940 2932 2928 2920 2913 2908 2900 2896 2893 2890 2886 2884 2880 2870 2860 2856 2853 2851 2847 2845 2840 2833 2827 2820 2814 2808 2805 2800 2796 2793 2790 2787 2785 2780 2775 2771 2767 2765 2760 2760 2752 2748 2746 2745 2744 2740 2740 2733 2730 2726 2720 2715 2710 2705 2700 2690 2680 2670 2660 2657 2654 2651 2649 2647 2645 2642 2640 2630 2620 2612 2608 2600 2600 2596 2592 2588 2585 2580 2576 2575 2574 2572 2568 2566 2560 2552 2548 2546 2545 2540 2530 2528 2520 2520 2513 2510 2506 2500 2498
2660 2665 2666 2670 2674 2680 2683 2686 2689 2693 2696 2697 2700 2705 2709 2713 2716 2720 2722 2724 2726 2728 2731 2733 2736 2740 2742 2742 2744 2745 2746 2747 2748 2749 2750 2752 2755 2760 2762 2762 2762 2763 2764 2767 2768 2771 2773 2776 2780 2783 2785 2789 2792 2796 2800 2807 2813 2820 2823 2826 2828 2830 2831 2831 2831 2830 2828 2827 2827 2827 2828 2830 2840 2840 2844 2846 2851 2855 2860 2862 2865 2867 2870 2871 2873 2876 2880 2882 2884 2887 2889 2890 2893 2895 2897 2900 2905 2910 2915 2920 2924 2927 2931 2935 2940 2947 2953 2960 2964 2968 2972 2976 2980 2985 2988 2994 3000 3004 3008 3012 3016 3020 3024 3028 3032 3036 3040 3043 3045 3049 3053 3056 3060 3063 3066 3069 3072 3074 3077 3080 3085 3090 3095 3100 3107 3113 3120 3127 3133 3140 3144 3148 3152 3156 3160 3165 3169 3173 3175 3180 3185 3187 3193 3195 3200 3207 3213 3220 3225 3227 3233 3235 3240 3245 3248 3254 3260 3267 3273 3280 3283 3284 3285 3283 3280 3273 3268 3260 3250 3240 3233 3227 3220 3210 3200 3192 3187 3180 3160 3150 3140 3132 3127 3120 3120 3120 3120 3130 3130 3140 3140 3140 3147 3147 3147 3148 3150 3152 3153 3153 3153 3153 3153 3153 3153 3153 3152 3148 3146 3145 3140 3140 3140 3140 3130 3140 3147 3148 3150 3152 3153 3153 3160 3160 3160 3160 3160 3160 3160 3152 3150 3150 3148 3146 3140 3140 3140 3140 3130 3130 3130 3128 3127 3126 3125 3120 3120 3110 3100 3095 3095 3093 3087 3085 3084 3080 3073 3072 3068 3060 3054 3050 3047 3040 3035 3033 3027 3025 3020 3012 3008 3000 3000 2992 2988 2980 2970 2970 2960 2954 2952 2948 2940 2932 2928 2920 2912 2908 2900 2896 2892 2888 2884 2880 2872 2868 2860 2856 2855 2852 2846 2840 2833 2828 2820 2815 2813 2808 2806 2800 2796 2793 2790 2787 2780 2776 2773 2771 2767 2765 2765 2760 2753 2752 2749 2747 2744 2744 2740 2733 2728 2720 2715 2710 2705 2700 2690 2680 2670 2660 2657 2654 2652 2649 2646 2644 2642 2640 2620 2613 2608 2600 2597 2597 2595 2593 2590 2587 2585 2580 2580 2580 2580 2573 2570 2566 2560 2553 2552 2547 2545 2540 2532 2528 2526 2520 2513 2507 2500 2498
2664 2666 2670 2674 2680 2683 2684 2688 2691 2694 2697 2700 2704 2706 2711 2715 2720 2722 2723 2725 2726 2728 2730 2732 2735 2740 2740 2742 2742 2743 2744 2745 2746 2748 2750 2753 2756 2760 2762 2764 2764 2765 2766 2768 2771 2773 2775 2777 2780 2783 2787 2790 2793 2796 2800 2807 2813 2820 2823 2826 2829 2832 2833 2835 2835 2835 2834 2833 2833 2833 2833 2840 2840 2843 2845 2849 2852 2856 2860 2862 2865 2866 2868 2870 2872 2875 2880 2882 2884 2886 2889 2890 2892 2894 2897 2900 2905 2907 2913 2915 2920 2925 2930 2935 2940 2947 2953 2960 2964 2967 2971 2975 2977 2980 2987 2993 3000 3004 3008 3012 3016 3020 3024 3028 3032 3036 3040 3044 3047 3051 3055 3057 3060 3063 3067 3070 3072 3076 3077 3080 3086 3090 3095 3100 3107 3113 3120 3127 3133 3140 3144 3148 3152 3156 3160 3165 3170 3175 3180 3185 3187 3193 3195 3200 3206 3210 3214 3220 3226 3232 3235 3240 3240 3245 3250 3255 3260 3268 3273 3280 3284 3286 3286 3283 3280 3273 3267 3260 3250 3240 3233 3227 3220 3210 3200 3193 3187 3180 3160 3150 3140 3134 3132 3128 3130 3130 3130 3140 3140 3148 3150 3150 3152 3153 3153 3154 3155 3155 3160 3160 3160 3160 3160 3160 3160 3160 3155 3154 3152 3148 3147 3147 3147 3147 3140 3150 3152 3153 3160 3160 3160 3160 3167 3167 3167 3167 3167 3167 3166 3160 3160 3160 3153 3150 3147 3147 3147 3147 3140 3140 3140 3133 3133 3132 3128 3126 3125 3120 3110 3100 3100 3095 3093 3089 3087 3084 3080 3080 3072 3068 3060 3054 3052 3048 3040 3035 3033 3027 3025 3020 3012 3008 3006 3000 2992 2988 2980 2980 2970 2960 2960 2952 2948 2940 2932 2928 2920 2910 2900 2896 2894 2890 2887 2884 2880 2872 2868 2860 2860 2854 2850 2846 2840 2832 2828 2820 2815 2814 2810 2806 2800 2795 2794 2792 2788 2780 2776 2775 2773 2770 2767 2765 2760 2755 2753 2750 2748 2745 2744 2740 2730 2720 2715 2712 2706 2700 2690 2680 2670 2660 2657 2654 2651 2649 2646 2643 2640 2630 2620 2613 2607 2600 2597 2597 2597 2596 2593 2591 2587 2585 2585 2584 2584 2580 2574 2570 2566 2560 2555 2553 2547 2545 2540 2533 2528 2520 2513 2507 2500 2499
2667 2669 2672 2675 2680 2683 2686 2688 2691 2694 2697 2700 2704 2708 2712 2716 2720 2722 2722 2723 2724 2726 2727 2729 2732 2733 2733 2740 2740 2742 2743 2743 2743 2745 2748 2751 2755 2760 2762 2762 2763 2764 2766 2768 2770 2773 2776 2780 2783 2784 2787 2791 2794 2797 2800 2807 2813 2820 2823 2826 2829 2832 2835 2837 2840 2840 2840 2840 2840 2840 2840 2842 2843 2844 2847 2850 2853 2856 2860 2862 2863 2864 2867 2868 2870 2873 2880 2882 2883 2885 2887 2888 2890 2892 2895 2897 2900 2905 2908 2914 2920 2925 2928 2934 2940 2947 2953 2960 2963 2967 2970 2973 2977 2980 2987 2993 3000 3004 3006 3011 3015 3020 3024 3028 3032 3036 3040 3044 3048 3052 3056 3060 3063 3065 3068 3072 3075 3077 3080 3086 3090 3094 3095 3100 3108 3113 3120 3127 3133 3140 3144 3148 3152 3156 3160 3165 3170 3175 3180 3185 3190 3195 3200 3205 3208 3214 3220 3225 3228 3234 3240 3244 3244 3247 3251 3255 3260 3270 3280 3285 3286 3288 3287 3284 3280 3273 3267 3260 3250 3240 3233 3228 3220 3210 3200 3193 3188 3180 3160 3152 3148 3140 3140 3133 3140 3140 3140 3148 3150 3152 3160 3160 3160 3160 3160 3160 3160 3160 3167 3167 3167 3167 3167 3167 3167 3167 3160 3160 3155 3154 3153 3153 3153 3152 3150 3160 3160 3160 3170 3170 3170 3170 3172 3173 3173 3173 3173 3173 3170 3167 3167 3166 3160 3154 3153 3153 3153 3152 3150 3148 3147 3140 3140 3135 3134 3132 3127 3125 3120 3110 3108 3100 3095 3093 3090 3087 3084 3084 3080 3072 3068 3060 3060 3052 3048 3040 3035 3033 3027 3025 3020 3013 3010 3006 3000 2992 2990 2988 2980 2970 2968 2960 2952 2948 2940 2932 2928 2920 2910 2900 2896 2893 2890 2887 2885 2880 2872 2868 2866 2860 2854 2850 2846 2840 2832 2828 2820 2820 2814 2810 2806 2800 2800 2800 2792 2788 2780 2780 2775 2775 2773 2767 2765 2760 2756 2754 2751 2748 2744 2740 2732 2727 2720 2713 2707 2700 2690 2680 2670 2660 2657 2654 2651 2649 2647 2644 2640 2630 2620 2614 2610 2606 2600 2600 2600 2600 2596 2595 2593 2590 2589 2588 2585 2584 2580 2574 2570 2566 2560 2555 2551 2547 2544 2540 2530 2520 2513 2507 2500 2499
2668 2671 2673 2676 2680 2683 2686 2688 2690 2693 2696 2700 2704 2708 2712 2716 2720 2720 2720 2720 2723 2723 2724 2725 2726 2727 2728 2730 2730 2740 2740 2740 2740 2744 2745 2747 2752 2753 2760 2760 2760 2763 2763 2765 2769 2772 2775 2780 2783 2784 2787 2790 2793 2797 2800 2807 2813 2820 2823 2825 2829 2833 2836 2840 2841 2841 2841 2842 2842 2842 2842 2843 2845 2846 2848 2849 2851 2854 2855 2860 2860 2863 2864 2865 2866 2868 2872 2880 2882 2883 2885 2886 2888 2890 2892 2895 2897 2900 2906 2910 2914 2920 2927 2933 2940 2947 2953 2960 2963 2967 2970 2973 2977 2980 2986 2992 2995 3000 3005 3010 3015 3020 3024 3028 3032 3036 3040 3044 3048 3052 3056 3060 3064 3067 3070 3073 3077 3080 3086 3090 3094 3100 3100 3107 3112 3120 3126 3130 3134 3140 3144 3148 3152 3156 3160 3165 3170 3175 3180 3185 3190 3195 3200 3205 3210 3215 3220 3225 3230 3235 3240 3244 3248 3250 3253 3256 3260 3280 3286 3288 3291 3291 3288 3284 3280 3273 3267 3260 3252 3247 3240 3230 3220 3212 3207 3200 3190 3180 3170 3160 3152 3150 3148 3140 3147 3148 3150 3152 3160 3160 3167 3167 3167 3167 3167 3168 3170 3170 3172 3173 3173 3173 3173 3173 3173 3172 3170 3170 3160 3160 3160 3160 3160 3160 3160 3170 3180 3180 3180 3180 3180 3180 3180 3180 3180 3180 3180 3180 3174 3173 3173 3170 3167 3160 3160 3160 3160 3160 3160 3153 3152 3148 3147 3140 3140 3135 3133 3128 3126 3120 3112 3110 3100 3096 3093 3090 3088 3086 3085 3080 3072 3068 3066 3060 3052 3048 3040 3035 3033 3027 3025 3020 3014 3010 3006 3000 3000 2992 2988 2980 2972 2968 2960 2952 2948 2940 2932 2928 2920 2910 2900 2896 2893 2891 2887 2885 2880 2873 2870 2866 2860 2854 2850 2846 2840 2832 2828 2826 2820 2814 2810 2806 2805 2805 2800 2792 2788 2786 2780 2780 2775 2773 2767 2765 2760 2756 2754 2749 2745 2740 2733 2727 2720 2713 2707 2700 2690 2680 2670 2660 2657 2654 2651 2650 2648 2645 2640 2632 2628 2620 2614 2610 2607 2607 2606 2605 2600 2600 2595 2595 2594 2591 2589 2585 2583 2580 2573 2567 2560 2556 2553 2549 2545 2540 2530 2520 2513 2507 2500 2500
2667 2670 2673 2676 2680 2683 2683 2685 2689 2692 2696 2700 2704 2707 2711 2714 2715 2715 2716 2716 2720 2720 2720 2720 2720 2720 2720 2720 2720 2720 2730 2730 2730 2740 2740 2745 2746 2748 2750 2752 2753 2760 2760 2764 2766 2769 2773 2775 2780 2783 2785 2789 2793 2796 2800 2806 2810 2814 2820 2824 2828 2831 2835 2840 2841 2843 2843 2843 2843 2843 2844 2844 2845 2845 2846 2847 2848 2849 2852 2853 2853 2860 2860 2860 2860 2860 2868 2872 2880 2882 2883 2883 2885 2888 2890 2892 2895 2897 2900 2907 2913 2920 2927 2933 2940 2947 2953 2960 2963 2967 2970 2973 2977 2980 2985 2988 2994 3000 3005 3008 3014 3020 3024 3026 3031 3035 3040 3044 3048 3052 3056 3060 3064 3068 3071 3075 3077 3080 3088 3093 3100 3105 3106 3110 3114 3120 3127 3133 3140 3143 3145 3149 3153 3156 3160 3165 3170 3175 3180 3185 3190 3195 3200 3205 3210 3215 3220 3226 3232 3235 3240 3245 3249 3254 3256 3260 3270 3280 3288 3293 3295 3294 3289 3285 3280 3273 3267 3260 3253 3247 3240 3230 3220 3213 3207 3200 3190 3180 3170 3160 3160 3160 3152 3150 3152 3153 3160 3160 3167 3168 3172 3173 3173 3173 3173 3173 3180 3180 3180 3180 3180 3180 3180 3180 3180 3180 3180 3180 3170 3170 3170 3170 3170 3170 3170 3180 3187 3187 3187 3187 3187 3187 3187 3187 3187 3187 3187 3187 3180 3180 3180 3174 3172 3170 3170 3168 3167 3167 3167 3160 3160 3153 3152 3148 3146 3140 3135 3134 3130 3126 3120 3120 3110 3100 3096 3094 3092 3091 3087 3085 3080 3073 3070 3066 3060 3052 3048 3040 3035 3033 3027 3025 3020 3014 3010 3006 3005 3000 2992 2988 2980 2972 2968 2960 2952 2947 2940 2932 2928 2920 2910 2900 2896 2895 2893 2887 2885 2880 2874 2868 2865 2860 2854 2850 2846 2840 2833 2830 2826 2820 2814 2812 2810 2807 2805 2800 2793 2790 2786 2785 2780 2775 2771 2767 2764 2760 2755 2752 2746 2740 2733 2727 2720 2713 2707 2700 2690 2680 2670 2660 2657 2654 2653 2652 2650 2647 2640 2640 2632 2630 2620 2614 2613 2613 2612 2608 2607 2606 2600 2600 2596 2595 2591 2587 2584 2580 2574 2568 2565 2560 2554 2548 2545 2540 2520 2515 2513 2507 2505 2506
2665 2668 2671 2674 2676 2680 2680 2684 2686 2691 2695 2700 2703 2705 2708 2709 2710 2711 2712 2714 2715 2715 2715 2715 2715 2715 2715 2715 2715 2715 2720 2720 2720 2720 2730 2740 2740 2740 2740 2747 2748 2752 2753 2760 2764 2765 2767 2773 2775 2780 2784 2787 2791 2794 2796 2800 2807 2813 2820 2824 2825 2828 2833 2840 2841 2841 2841 2842 2842 2842 2842 2842 2842 2843 2843 2844 2844 2845 2846 2847 2848 2850 2850 2860 2853 2854 2860 2868 2872 2880 2880 2880 2883 2885 2888 2891 2894 2897 2900 2907 2912 2920 2927 2932 2940 2947 2953 2960 2963 2966 2969 2973 2976 2977 2980 2986 2992 2995 3000 3006 3012 3015 3020 3025 3030 3035 3040 3045 3049 3054 3056 3060 3065 3069 3074 3076 3080 3088 3092 3100 3105 3107 3112 3114 3120 3126 3130 3134 3140 3144 3147 3151 3155 3157 3160 3165 3170 3175 3180 3185 3190 3195 3200 3205 3210 3215 3220 3228 3233 3240 3244 3246 3251 3255 3260 3268 3272 3280 3290 3300 3300 3295 3292 3286 3280 3273 3267 3260 3253 3247 3240 3230 3220 3213 3208 3200 3192 3187 3180 3170 3167 3167 3160 3160 3160 3160 3170 3170 3172 3173 3180 3180 3180 3180 3180 3180 3185 3186 3187 3188 3190 3190 3190 3190 3190 3190 3188 3187 3180 3180 3180 3180 3180 3180 3180 3190 3192 3193 3193 3193 3193 3193 3193 3193 3193 3193 3193 3192 3190 3188 3187 3180 3180 3180 3180 3173 3173 3173 3172 3168 3167 3160 3160 3153 3150 3147 3140 3140 3134 3130 3127 3126 3120 3110 3100 3096 3096 3095 3093 3087 3085 3080 3074 3068 3065 3060 3052 3048 3040 3035 3033 3027 3025 3020 3014 3010 3007 3004 3000 2992 2987 2980 2970 2960 2954 2950 2946 2940 2932 2927 2920 2910 2900 2900 2895 2892 2886 2880 2875 2873 2867 2865 2860 2854 2848 2845 2840 2834 2830 2826 2820 2815 2815 2813 2807 2805 2800 2794 2790 2785 2780 2776 2773 2770 2767 2764 2760 2753 2747 2740 2733 2727 2720 2712 2707 2700 2680 2673 2668 2660 2657 2657 2656 2655 2654 2652 2650 2648 2640 2640 2630 2620 2620 2620 2615 2614 2613 2610 2607 2606 2600 2596 2592 2588 2584 2580 2575 2572 2566 2560 2553 2547 2540 2530 2520 2516 2512 2509 2509 2512
2663 2665 2668 2670 2673 2675 2675 2680 2685 2687 2692 2693 2700 2704 2704 2705 2705 2706 2708 2709 2710 2710 2710 2710 2710 2710 2710 2710 2710 2712 2713 2713 2713 2713 2720 2720 2720 2720 2730 2740 2740 2747 2748 2752 2760 2760 2765 2768 2774 2780 2783 2785 2788 2791 2795 2800 2806 2808 2812 2820 2820 2826 2828 2832 2840 2840 2840 2840 2842 2840 2840 2840 2840 2840 2840 2840 2840 2840 2840 2840 2840 2840 2840 2840 2847 2850 2854 2860 2868 2872 2874 2875 2880 2883 2886 2889 2892 2896 2897 2900 2908 2913 2920 2930 2940 2947 2953 2960 2963 2966 2968 2972 2974 2977 2980 2985 2990 2995 3000 3005 3008 3014 3020 3025 3028 3034 3040 3045 3050 3055 3060 3065 3067 3073 3075 3080 3088 3092 3100 3105 3107 3113 3115 3120 3125 3128 3134 3140 3143 3145 3149 3153 3156 3160 3164 3166 3171 3175 3180 3185 3190 3195 3200 3205 3210 3215 3220 3230 3240 3243 3245 3249 3252 3256 3260 3270 3280 3288 3292 3300 3302 3300 3293 3288 3280 3273 3268 3260 3254 3250 3246 3240 3230 3220 3210 3200 3193 3187 3180 3173 3173 3172 3168 3170 3170 3170 3180 3180 3180 3180 3185 3185 3185 3185 3186 3187 3188 3192 3193 3193 3200 3200 3200 3200 3200 3200 3193 3192 3190 3190 3190 3190 3190 3190 3190 3200 3200 3200 3200 3200 3200 3200 3200 3200 3200 3200 3200 3200 3200 3193 3192 3190 3188 3187 3186 3180 3180 3180 3180 3173 3172 3168 3166 3160 3154 3152 3148 3147 3140 3134 3133 3130 3126 3120 3110 3100 3100 3100 3095 3092 3086 3080 3075 3073 3067 3065 3060 3052 3048 3040 3035 3032 3026 3020 3015 3013 3009 3005 3000 2994 2990 2986 2980 2970 2960 2953 2948 2940 2934 2930 2926 2920 2910 2907 2900 2894 2890 2886 2880 2875 2872 2866 2860 2855 2853 2847 2845 2840 2834 2830 2826 2820 2820 2815 2812 2806 2800 2795 2793 2787 2785 2780 2776 2773 2769 2765 2760 2753 2747 2740 2732 2727 2720 2710 2700 2690 2680 2674 2668 2666 2660 2660 2660 2660 2660 2660 2660 2652 2650 2648 2640 2640 2630 2630 2620 2620 2620 2614 2613 2608 2600 2596 2594 2590 2587 2584 2580 2573 2567 2560 2553 2547 2540 2530 2520 2516 2513 2513 2514 2515
2660 2664 2664 2667 2669 2670 2672 2674 2680 2685 2686 2688 2692 2700 2700 2700 2700 2704 2704 2705 2705 2705 2705 2705 2705 2705 2705 2705 2705 2706 2707 2707 2707 2708 2710 2710 2710 2712 2720 2720 2730 2740 2740 2748 2752 2754 2760 2766 2770 2774 2780 2784 2785 2787 2793 2795 2800 2800 2808 2812 2814 2820 2820 2828 2830 2830 2830 2832 2840 2830 2830 2830 2830 2830 2830 2830 2830 2820 2820 2820 2820 2830 2832 2834 2840 2846 2850 2854 2860 2867 2870 2875 2880 2883 2886 2889 2892 2894 2897 2900 2907 2913 2920 2930 2940 2947 2953 2960 2963 2964 2967 2971 2974 2977 2980 2985 2989 2994 2996 3000 3006 3012 3015 3020 3027 3033 3040 3045 3050 3055 3060 3066 3072 3075 3080 3088 3092 3100 3105 3107 3113 3115 3120 3124 3127 3131 3135 3140 3144 3147 3151 3155 3157 3160 3164 3168 3172 3176 3180 3185 3188 3194 3200 3205 3210 3215 3220 3230 3240 3244 3247 3251 3255 3256 3260 3270 3280 3290 3300 3302 3303 3302 3300 3292 3287 3280 3272 3267 3260 3253 3247 3240 3230 3220 3210 3200 3194 3188 3185 3180 3180 3180 3173 3180 3180 3180 3187 3187 3187 3187 3188 3190 3190 3190 3192 3193 3194 3195 3200 3200 3205 3205 3205 3205 3205 3205 3200 3200 3200 3200 3200 3200 3200 3200 3200 3207 3208 3210 3210 3220 3220 3220 3220 3210 3207 3205 3204 3203 3203 3200 3200 3200 3193 3193 3190 3187 3186 3185 3185 3180 3180 3173 3170 3167 3160 3160 3153 3152 3148 3140 3140 3134 3130 3126 3120 3110 3108 3106 3100 3094 3090 3086 3080 3075 3073 3067 3065 3060 3052 3048 3040 3034 3030 3026 3020 3015 3013 3007 3005 3000 2993 2987 2980 2972 2968 2960 2952 2948 2940 2933 2928 2920 2913 2910 2906 2900 2894 2890 2886 2880 2874 2870 2866 2860 2855 2853 2847 2845 2840 2834 2830 2826 2825 2820 2814 2808 2805 2800 2795 2793 2787 2785 2780 2775 2770 2765 2760 2753 2748 2740 2730 2720 2713 2708 2700 2690 2680 2675 2674 2670 2667 2670 2680 2680 2670 2668 2666 2660 2660 2652 2650 2648 2640 2640 2640 2630 2628 2620 2620 2612 2608 2600 2595 2592 2586 2580 2575 2572 2566 2560 2553 2547 2540 2530 2520 2517 2517 2516 2516 2520
2650 2660 2660 2664 2665 2665 2666 2670 2674 2680 2680 2680 2688 2690 2690 2692 2694 2700 2700 2700 2700 2700 2700 2700 2700 2700 2700 2700 2700 2700 2700 2700 2700 2700 2700 2700 2700 2708 2712 2714 2720 2730 2732 2740 2747 2750 2754 2760 2766 2770 2774 2780 2780 2785 2787 2792 2793 2794 2800 2807 2810 2814 2815 2820 2820 2820 2820 2827 2820 2820 2820 2820 2820 2820 2820 2820 2820 2813 2814 2815 2816 2820 2827 2830 2834 2840 2847 2852 2860 2865 2868 2874 2880 2883 2886 2888 2891 2894 2897 2900 2906 2912 2915 2920 2940 2946 2950 2954 2960 2963 2967 2970 2973 2977 2980 2984 2988 2992 2996 3000 3005 3010 3015 3020 3027 3032 3040 3045 3050 3055 3060 3067 3073 3080 3087 3092 3100 3104 3106 3111 3115 3120 3124 3126 3130 3133 3136 3140 3144 3148 3152 3156 3160 3163 3165 3168 3172 3175 3177 3180 3187 3193 3200 3205 3208 3214 3220 3230 3240 3244 3248 3252 3256 3260 3267 3272 3280 3300 3302 3303 3305 3303 3300 3293 3288 3280 3273 3268 3260 3254 3250 3246 3240 3230 3220 3200 3195 3193 3187 3185 3185 3185 3180 3186 3187 3188 3192 3193 3193 3193 3194 3195 3195 3195 3195 3200 3200 3200 3207 3207 3208 3210 3210 3210 3210 3208 3207 3207 3206 3205 3205 3205 3206 3207 3208 3212 3213 3220 3220 3222 3221 3221 3220 3213 3210 3208 3207 3206 3204 3202 3202 3202 3200 3200 3194 3193 3192 3190 3187 3185 3184 3180 3174 3172 3168 3166 3160 3160 3152 3148 3147 3140 3134 3130 3126 3120 3113 3110 3106 3100 3094 3090 3086 3080 3075 3073 3067 3065 3060 3052 3048 3040 3034 3030 3026 3020 3015 3012 3006 3000 2994 2990 2986 2980 2972 2968 2960 2952 2948 2940 2932 2927 2920 2914 2910 2906 2900 2894 2890 2886 2880 2874 2870 2866 2860 2855 2853 2847 2845 2840 2834 2832 2826 2820 2815 2813 2807 2805 2800 2795 2790 2785 2780 2775 2771 2766 2764 2760 2750 2740 2730 2720 2713 2707 2700 2692 2687 2680 2680 2690 2692 2690 2690 2688 2680 2673 2670 2667 2666 2660 2660 2652 2648 2646 2645 2640 2632 2628 2626 2620 2612 2607 2600 2593 2587 2580 2574 2568 2565 2560 2552 2547 2540 2530 2520 2517 2520 2520 2520 2530
2640 2650 2650 2660 2660 2660 2660 2666 2670 2674 2675 2676 2680 2680 2680 2687 2690 2693 2693 2693 2693 2693 2693 2694 2695 2695 2695 2695 2695 2696 2696 2697 2697 2697 2697 2697 2697 2700 2707 2710 2713 2720 2728 2730 2740 2746 2750 2754 2760 2766 2770 2773 2773 2780 2785 2786 2787 2790 2794 2800 2806 2808 2813 2815 2815 2815 2815 2820 2815 2815 2814 2813 2812 2810 2810 2810 2810 2808 2808 2811 2813 2816 2820 2826 2832 2835 2840 2848 2853 2860 2867 2873 2880 2883 2884 2888 2891 2894 2897 2900 2907 2913 2920 2927 2933 2940 2947 2953 2960 2963 2967 2970 2973 2977 2980 2984 2988 2992 2996 3000 3005 3009 3014 3016 3020 3030 3040 3045 3048 3054 3060 3067 3073 3080 3087 3093 3100 3104 3108 3112 3116 3120 3124 3128 3132 3136 3140 3143 3145 3149 3153 3156 3160 3163 3167 3170 3173 3177 3180 3185 3187 3193 3195 3200 3207 3213 3220 3230 3240 3244 3248 3252 3256 3260 3267 3273 3280 3300 3303 3305 3306 3304 3303 3300 3292 3288 3280 3272 3268 3260 3253 3247 3240 3230 3220 3210 3200 3195 3191 3190 3190 3187 3187 3190 3193 3193 3200 3200 3200 3200 3200 3200 3200 3200 3200 3207 3208 3210 3212 3213 3214 3215 3215 3215 3215 3214 3213 3213 3212 3210 3210 3210 3212 3213 3213 3220 3220 3222 3222 3222 3223 3221 3220 3215 3212 3210 3209 3207 3206 3204 3204 3203 3202 3202 3200 3200 3195 3195 3193 3189 3187 3185 3180 3180 3173 3170 3167 3166 3160 3153 3152 3148 3140 3134 3130 3126 3120 3114 3110 3106 3100 3094 3090 3086 3080 3075 3073 3067 3065 3060 3052 3048 3040 3034 3030 3026 3020 3014 3010 3006 3000 2994 2990 2986 2980 2972 2967 2960 2950 2940 2934 2930 2926 2920 2914 2910 2906 2900 2894 2890 2886 2880 2874 2870 2866 2860 2855 2853 2847 2845 2840 2834 2830 2826 2820 2815 2810 2805 2800 2795 2792 2786 2780 2775 2770 2765 2760 2753 2748 2740 2730 2720 2713 2707 2700 2694 2692 2690 2690 2700 2695 2694 2700 2692 2690 2680 2674 2673 2670 2666 2665 2660 2653 2652 2647 2645 2640 2633 2628 2620 2613 2608 2600 2593 2587 2580 2573 2567 2560 2553 2548 2540 2534 2530 2526 2520 2528 2530 2530 2540
2634 2640 2640 2650 2652 2654 2655 2660 2666 2668 2671 2673 2676 2677 2676 2680 2686 2687 2687 2687 2687 2687 2687 2688 2690 2690 2690 2690 2691 2692 2693 2693 2694 2694 2694 2694 2696 2697 2700 2706 2708 2712 2720 2720 2730 2740 2746 2750 2753 2760 2766 2767 2768 2770 2780 2780 2780 2786 2790 2793 2800 2793 2809 2810 2810 2810 2812 2813 2812 2810 2808 2807 2807 2800 2800 2800 2800 2800 2805 2807 2811 2815 2820 2826 2832 2835 2840 2850 2860 2865 2867 2873 2875 2880 2883 2887 2890 2893 2897 2900 2907 2913 2920 2927 2933 2940 2947 2953 2960 2963 2967 2970 2973 2977 2980 2984 2988 2992 2996 3000 3004 3008 3012 3016 3020 3028 3033 3040 3047 3053 3060 3067 3073 3080 3087 3093 3100 3104 3108 3112 3116 3120 3124 3128 3132 3136 3140 3143 3147 3150 3153 3157 3160 3164 3167 3171 3175 3177 3180 3185 3190 3195 3200 3205 3208 3214 3220 3230 3240 3244 3248 3252 3256 3260 3268 3273 3280 3300 3303 3304 3307 3307 3305 3304 3300 3292 3287 3280 3270 3260 3253 3248 3240 3230 3220 3210 3200 3196 3195 3195 3195 3193 3193 3194 3200 3200 3207 3207 3207 3207 3207 3207 3207 3208 3210 3212 3213 3220 3220 3220 3220 3220 3220 3220 3220 3220 3220 3220 3215 3215 3215 3215 3215 3220 3220 3222 3222 3223 3223 3224 3222 3221 3220 3216 3213 3211 3210 3208 3207 3206 3205 3204 3203 3202 3202 3201 3200 3200 3195 3193 3191 3187 3185 3184 3180 3174 3173 3170 3166 3160 3160 3152 3148 3140 3134 3130 3126 3120 3114 3110 3106 3100 3094 3090 3086 3080 3075 3073 3067 3065 3060 3052 3047 3040 3034 3028 3025 3020 3014 3010 3006 3000 2993 2987 2980 2973 2967 2960 2952 2948 2940 2934 2930 2926 2920 2914 2910 2906 2900 2894 2890 2886 2880 2874 2870 2866 2860 2855 2853 2847 2845 2840 2833 2827 2820 2815 2813 2807 2805 2800 2793 2788 2780 2775 2772 2766 2760 2753 2747 2740 2730 2720 2714 2708 2706 2700 2700 2700 2700 2707 2708 2707 2705 2700 2700 2700 2680 2680 2674 2672 2667 2665 2660 2655 2653 2647 2645 2640 2632 2627 2620 2610 2600 2593 2587 2580 2573 2567 2560 2552 2547 2540 2535 2531 2527 2528 2532 2540 2540 2548
2630 2634 2635 2640 2647 2648 2653 2655 2660 2665 2667 2670 2673 2673 2674 2675 2680 2680 2680 2680 2680 2680 2680 2685 2685 2685 2685 2685 2686 2689 2690 2690 2691 2691 2691 2692 2693 2695 2696 2700 2700 2708 2712 2714 2720 2730 2740 2746 2748 2750 2760 2760 2760 2760 2770 2772 2773 2780 2787 2790 2800 2790 2793 2805 2805 2805 2806 2807 2806 2805 2805 2800 2800 2796 2797 2797 2797 2797 2800 2805 2808 2814 2820 2827 2833 2840 2847 2852 2860 2864 2868 2872 2876 2880 2883 2887 2890 2893 2897 2900 2907 2913 2920 2927 2933 2940 2947 2953 2960 2963 2967 2970 2973 2977 2980 2984 2988 2992 2996 3000 3004 3008 3012 3016 3020 3030 3040 3045 3048 3054 3060 3067 3073 3080 3087 3093 3100 3104 3106 3111 3115 3120 3124 3126 3131 3135 3140 3143 3147 3150 3153 3157 3160 3164 3168 3172 3176 3180 3184 3186 3191 3195 3200 3206 3212 3215 3220 3230 3240 3244 3248 3252 3256 3260 3270 3280 3287 3293 3300 3304 3307 3309 3308 3305 3300 3294 3290 3286 3280 3270 3260 3250 3240 3230 3220 3212 3208 3200 3200 3200 3200 3195 3200 3200 3208 3210 3212 3213 3213 3213 3213 3213 3213 3213 3220 3220 3220 3227 3227 3227 3227 3227 3227 3227 3227 3227 3227 3227 3220 3220 3220 3220 3220 3223 3223 3224 3224 3225 3224 3222 3222 3220 3216 3215 3212 3209 3208 3206 3205 3204 3204 3204 3203 3203 3203 3202 3201 3201 3200 3196 3195 3193 3189 3187 3184 3180 3180 3174 3170 3166 3165 3160 3152 3148 3140 3134 3130 3126 3120 3114 3110 3106 3100 3094 3090 3086 3080 3075 3072 3066 3060 3053 3048 3040 3035 3033 3027 3025 3020 3013 3007 3000 2993 2987 2980 2974 2970 2966 2960 2952 2947 2940 2934 2928 2925 2920 2914 2908 2905 2900 2894 2888 2885 2880 2874 2868 2865 2860 2855 2850 2845 2840 2834 2830 2826 2820 2815 2811 2806 2804 2800 2792 2787 2780 2773 2767 2760 2753 2747 2740 2730 2720 2715 2714 2710 2710 2710 2710 2710 2712 2714 2713 2707 2705 2704 2704 2700 2690 2680 2675 2673 2667 2665 2660 2655 2652 2646 2640 2633 2627 2620 2610 2600 2593 2587 2580 2572 2567 2560 2550 2540 2537 2535 2531 2533 2533 2540 2547 2548 2552
2626 2628 2633 2635 2640 2645 2647 2653 2655 2660 2664 2667 2670 2670 2670 2672 2673 2673 2673 2673 2673 2673 2673 2680 2680 2680 2680 2680 2684 2685 2687 2687 2688 2688 2689 2689 2690 2691 2694 2695 2696 2700 2707 2710 2714 2720 2730 2740 2740 2740 2740 2750 2750 2750 2760 2767 2768 2770 2780 2780 2780 2780 2800 2800 2800 2800 2800 2800 2800 2800 2800 2794 2795 2794 2793 2794 2794 2796 2797 2800 2807 2813 2820 2827 2833 2840 2847 2853 2860 2865 2869 2874 2876 2880 2883 2887 2890 2893 2897 2900 2907 2913 2920 2927 2933 2940 2947 2953 2960 2963 2967 2970 2973 2977 2980 2984 2988 2992 2996 3000 3004 3008 3012 3016 3020 3030 3040 3045 3050 3055 3060 3067 3073 3080 3086 3092 3095 3100 3105 3107 3113 3115 3120 3125 3128 3134 3140 3143 3147 3150 3153 3157 3160 3164 3168 3172 3176 3180 3184 3188 3192 3196 3200 3208 3213 3220 3227 3232 3240 3245 3249 3254 3256 3260 3270 3280 3287 3293 3300 3304 3308 3311 3311 3308 3307 3300 3294 3290 3286 3280 3260 3250 3240 3232 3228 3220 3212 3207 3207 3206 3207 3200 3210 3210 3212 3220 3220 3220 3220 3220 3220 3220 3220 3220 3228 3230 3230 3232 3233 3233 3233 3233 3233 3233 3233 3233 3233 3232 3230 3230 3228 3226 3225 3225 3226 3226 3226 3225 3223 3222 3220 3216 3214 3211 3209 3207 3206 3204 3203 3202 3202 3202 3202 3202 3201 3202 3202 3202 3201 3200 3200 3195 3193 3190 3187 3184 3184 3180 3174 3172 3167 3165 3160 3152 3148 3140 3134 3130 3126 3120 3114 3110 3106 3100 3094 3090 3086 3080 3074 3070 3066 3060 3052 3047 3040 3035 3032 3026 3020 3013 3007 3000 2994 2990 2986 2980 2973 2967 2960 2953 2948 2940 2935 2932 2926 2920 2915 2912 2906 2900 2895 2892 2886 2880 2875 2872 2866 2860 2855 2853 2847 2845 2840 2833 2827 2820 2816 2812 2808 2804 2800 2790 2780 2775 2772 2766 2760 2753 2747 2740 2732 2727 2720 2720 2714 2720 2720 2720 2720 2720 2720 2715 2713 2709 2708 2705 2700 2692 2687 2680 2675 2671 2667 2664 2660 2653 2647 2640 2633 2627 2620 2610 2600 2593 2588 2580 2570 2560 2560 2550 2540 2537 2534 2535 2535 2540 2548 2552 2553 2560
2620 2625 2629 2634 2636 2640 2647 2653 2660 2663 2665 2667 2668 2668 2667 2666 2667 2667 2667 2667 2667 2667 2668 2672 2674 2675 2675 2675 2680 2683 2683 2683 2684 2686 2686 2686 2687 2688 2689 2691 2693 2696 2700 2706 2710 2713 2720 2720 2730 2730 2732 2740 2740 2740 2750 2760 2760 2760 2760 2760 2770 2770 2780 2780 2790 2790 2790 2790 2790 2790 2790 2790 2790 2790 2790 2791 2792 2794 2797 2800 2807 2813 2820 2827 2833 2840 2847 2853 2860 2865 2870 2875 2880 2883 2884 2888 2891 2894 2897 2900 2907 2913 2920 2927 2933 2940 2947 2953 2960 2963 2967 2970 2973 2977 2980 2984 2988 2992 2996 3000 3004 3008 3012 3016 3020 3030 3040 3045 3050 3055 3060 3067 3073 3080 3085 3089 3093 3096 3100 3105 3109 3113 3116 3120 3127 3132 3140 3143 3147 3150 3153 3157 3160 3164 3168 3172 3176 3180 3184 3188 3192 3196 3200 3210 3220 3225 3228 3234 3240 3245 3250 3255 3260 3267 3272 3280 3287 3293 3300 3305 3309 3314 3315 3314 3312 3308 3300 3293 3288 3280 3270 3260 3250 3240 3230 3220 3214 3213 3213 3212 3212 3210 3220 3220 3220 3227 3227 3227 3227 3227 3228 3230 3230 3230 3232 3240 3240 3240 3240 3240 3240 3240 3240 3240 3240 3240 3240 3240 3240 3240 3233 3232 3229 3228 3228 3227 3225 3223 3222 3220 3216 3213 3210 3208 3205 3204 3203 3203 3200 3200 3200 3200 3200 3200 3200 3201 3201 3201 3202 3201 3201 3200 3196 3193 3190 3188 3185 3184 3180 3175 3173 3167 3165 3160 3152 3148 3140 3134 3130 3126 3120 3114 3110 3106 3100 3094 3090 3086 3080 3073 3068 3060 3054 3050 3046 3040 3033 3027 3020 3014 3010 3006 3000 2993 2987 2980 2974 2968 2965 2960 2952 2947 2940 2934 2928 2925 2920 2914 2910 2906 2900 2894 2890 2886 2880 2874 2870 2866 2860 2855 2850 2845 2840 2833 2827 2820 2815 2811 2806 2804 2800 2790 2780 2775 2770 2765 2760 2753 2747 2740 2734 2732 2730 2730 2720 2730 2730 2730 2730 2730 2728 2720 2715 2714 2710 2706 2700 2693 2687 2680 2676 2673 2669 2665 2660 2653 2647 2640 2633 2627 2620 2612 2607 2600 2590 2580 2560 2555 2553 2548 2540 2537 2537 2537 2540 2548 2552 2560 2560 2570
2620 2625 2628 2632 2636 2640 2647 2653 2660 2663 2665 2667 2666 2665 2664 2660 2660 2660 2660 2660 2660 2660 2660 2667 2668 2670 2670 2672 2674 2680 2680 2680 2683 2683 2683 2683 2684 2684 2685 2687 2690 2693 2696 2700 2706 2708 2712 2713 2720 2720 2728 2730 2730 2730 2740 2740 2740 2740 2740 2750 2760 2760 2760 2760 2780 2780 2780 2780 2780 2780 2780 2786 2785 2786 2788 2788 2791 2794 2797 2800 2807 2813 2820 2827 2833 2840 2847 2853 2860 2865 2870 2875 2880 2883 2886 2888 2891 2894 2897 2900 2907 2913 2920 2927 2933 2940 2947 2953 2960 2963 2967 2970 2973 2977 2980 2984 2988 2992 2996 3000 3004 3008 3012 3016 3020 3030 3040 3045 3050 3055 3060 3067 3073 3080 3084 3087 3091 3095 3100 3104 3107 3110 3114 3116 3120 3130 3140 3143 3147 3150 3153 3157 3160 3164 3168 3172 3176 3180 3184 3188 3192 3196 3200 3210 3220 3225 3230 3235 3240 3245 3250 3255 3260 3267 3273 3280 3288 3293 3300 3306 3312 3315 3320 3320 3320 3312 3308 3300 3290 3280 3270 3260 3250 3240 3232 3228 3220 3220 3220 3215 3220 3220 3227 3228 3230 3232 3233 3233 3233 3233 3233 3240 3240 3240 3240 3241 3241 3241 3241 3241 3241 3241 3241 3241 3241 3241 3241 3241 3241 3241 3240 3235 3232 3231 3229 3226 3224 3222 3220 3216 3213 3210 3207 3204 3204 3200 3200 3200 3202 3202 3202 3202 3202 3202 3201 3200 3200 3200 3201 3201 3201 3201 3200 3196 3194 3191 3189 3185 3184 3180 3175 3173 3167 3165 3160 3152 3147 3140 3134 3128 3125 3120 3114 3110 3106 3100 3094 3088 3085 3080 3072 3067 3060 3053 3048 3040 3034 3030 3026 3020 3013 3007 3000 2993 2988 2980 2975 2970 2965 2960 2953 2948 2940 2935 2933 2927 2925 2920 2914 2910 2906 2900 2894 2890 2886 2880 2873 2867 2860 2855 2850 2845 2840 2832 2827 2820 2815 2810 2805 2800 2792 2788 2780 2775 2770 2765 2760 2753 2747 2740 2735 2740 2740 2740 2740 2740 2740 2740 2740 2740 2730 2720 2720 2715 2713 2708 2700 2694 2688 2686 2680 2675 2670 2665 2660 2653 2647 2640 2633 2627 2620 2610 2600 2593 2588 2580 2560 2555 2550 2546 2540 2540 2540 2540 2548 2552 2560 2570 2570 2580
2620 2626 2630 2634 2636 2640 2647 2653 2660 2662 2665 2665 2664 2663 2660 2657 2657 2657 2657 2658 2658 2658 2658 2660 2665 2665 2665 2666 2670 2673 2673 2674 2680 2680 2680 2680 2680 2680 2680 2684 2687 2690 2693 2696 2700 2700 2707 2708 2712 2713 2720 2720 2720 2720 2720 2720 2730 2730 2732 2740 2740 2740 2740 2750 2760 2760 2770 2770 2772 2774 2775 2780 2780 2784 2785 2787 2791 2794 2797 2800 2807 2812 2820 2827 2832 2840 2847 2853 2860 2865 2870 2875 2880 2883 2886 2889 2891 2894 2897 2900 2907 2912 2920 2927 2933 2940 2947 2952 2960 2963 2967 2970 2973 2977 2980 2984 2988 2992 2996 3000 3004 3008 3012 3016 3020 3030 3040 3045 3050 3055 3060 3066 3072 3075 3080 3085 3089 3093 3096 3100 3104 3108 3112 3116 3120 3130 3140 3143 3145 3149 3153 3156 3160 3164 3168 3172 3176 3180 3184 3188 3192 3196 3200 3210 3220 3225 3230 3235 3240 3245 3250 3255 3260 3267 3273 3280 3290 3300 3305 3308 3314 3320 3325 3325 3325 3320 3312 3307 3300 3280 3272 3268 3260 3250 3240 3232 3230 3230 3230 3220 3230 3230 3232 3233 3240 3240 3240 3240 3240 3240 3240 3241 3241 3241 3241 3241 3242 3241 3241 3241 3241 3241 3241 3241 3241 3241 3241 3241 3241 3241 3240 3236 3233 3231 3228 3226 3223 3220 3215 3213 3210 3207 3204 3200 3200 3202 3202 3202 3202 3203 3203 3203 3203 3203 3202 3202 3201 3201 3200 3201 3201 3201 3201 3200 3196 3195 3191 3189 3185 3184 3180 3175 3172 3166 3160 3153 3148 3140 3135 3133 3127 3125 3120 3113 3107 3100 3095 3092 3086 3080 3074 3070 3066 3060 3052 3047 3040 3033 3028 3020 3014 3008 3005 3000 2990 2980 2975 2973 2967 2965 2960 2952 2948 2940 2935 2933 2927 2925 2920 2914 2910 2906 2900 2893 2888 2880 2873 2867 2860 2854 2850 2846 2840 2830 2820 2815 2813 2807 2805 2800 2790 2780 2776 2774 2769 2765 2760 2754 2752 2748 2740 2747 2747 2747 2747 2747 2747 2747 2746 2745 2740 2730 2728 2720 2720 2710 2700 2695 2693 2688 2680 2675 2672 2666 2660 2653 2648 2640 2633 2628 2620 2610 2600 2593 2587 2580 2560 2555 2551 2550 2550 2550 2550 2550 2552 2560 2570 2580 2580 2580
2627 2630 2634 2635 2640 2640 2647 2653 2660 2662 2663 2662 2663 2660 2656 2655 2654 2654 2655 2655 2656 2656 2657 2658 2660 2660 2660 2660 2666 2667 2667 2670 2674 2675 2676 2676 2677 2677 2678 2680 2684 2687 2690 2694 2696 2697 2700 2700 2707 2708 2710 2710 2710 2712 2714 2715 2720 2720 2728 2732 2734 2735 2736 2740 2750 2753 2760 2760 2767 2770 2774 2776 2777 2780 2785 2788 2790 2793 2796 2797 2800 2808 2813 2820 2830 2840 2847 2853 2860 2865 2870 2875 2880 2883 2885 2888 2891 2894 2896 2897 2900 2910 2920 2926 2930 2934 2940 2950 2960 2963 2965 2969 2973 2976 2980 2984 2988 2992 2996 3000 3004 3008 3012 3016 3020 3030 3040 3045 3050 3055 3060 3065 3070 3075 3080 3084 3087 3091 3095 3100 3104 3106 3111 3115 3120 3128 3133 3140 3144 3148 3152 3156 3160 3164 3168 3172 3176 3180 3184 3188 3192 3196 3200 3210 3220 3225 3230 3235 3240 3245 3250 3255 3260 3267 3273 3280 3290 3300 3306 3312 3315 3320 3326 3330 3326 3320 3314 3308 3305 3300 3280 3270 3260 3252 3247 3240 3240 3240 3240 3240 3240 3240 3240 3240 3241 3241 3241 3241 3241 3241 3241 3241 3242 3242 3242 3242 3242 3242 3242 3242 3242 3242 3242 3242 3242 3242 3242 3242 3241 3241 3240 3237 3233 3230 3228 3224 3223 3220 3214 3210 3207 3204 3200 3202 3202 3202 3204 3204 3204 3205 3205 3205 3205 3204 3204 3203 3203 3202 3202 3200 3201 3202 3201 3201 3200 3196 3195 3191 3189 3185 3184 3180 3174 3170 3166 3160 3152 3148 3140 3135 3132 3126 3120 3114 3110 3106 3100 3094 3090 3086 3080 3073 3067 3060 3054 3050 3046 3040 3030 3020 3015 3012 3006 3000 2992 2987 2980 2975 2971 2967 2964 2960 2952 2947 2940 2935 2933 2927 2925 2920 2914 2908 2905 2900 2890 2880 2874 2868 2865 2860 2850 2840 2833 2828 2820 2814 2808 2805 2800 2793 2788 2780 2776 2772 2768 2764 2760 2760 2760 2752 2750 2752 2753 2753 2753 2753 2753 2753 2752 2748 2746 2740 2732 2730 2728 2720 2710 2700 2700 2692 2688 2680 2674 2670 2666 2660 2652 2647 2640 2630 2620 2610 2600 2593 2587 2580 2560 2556 2555 2554 2560 2560 2560 2560 2560 2580 2580 2588 2590 2600
2632 2634 2640 2640 2644 2645 2648 2654 2660 2662 2662 2660 2660 2655 2654 2652 2652 2652 2653 2653 2654 2655 2656 2657 2658 2658 2659 2659 2660 2660 2660 2666 2668 2671 2672 2673 2674 2675 2677 2678 2680 2684 2688 2691 2693 2696 2697 2697 2700 2700 2700 2700 2700 2707 2708 2713 2715 2716 2720 2727 2730 2734 2736 2740 2747 2753 2760 2766 2768 2773 2775 2776 2780 2787 2788 2791 2793 2794 2796 2797 2800 2807 2813 2820 2830 2840 2847 2853 2860 2865 2870 2875 2880 2883 2885 2888 2890 2893 2895 2897 2900 2908 2913 2920 2926 2932 2935 2940 2950 2960 2964 2968 2972 2976 2980 2984 2988 2992 2996 3000 3004 3008 3012 3016 3020 3030 3040 3045 3050 3055 3060 3065 3069 3074 3076 3080 3085 3089 3094 3096 3100 3105 3110 3115 3120 3127 3133 3140 3144 3148 3152 3156 3160 3165 3169 3174 3176 3180 3185 3189 3194 3196 3200 3210 3220 3225 3230 3235 3240 3246 3252 3255 3260 3268 3273 3280 3290 3300 3308 3313 3320 3326 3330 3333 3328 3320 3315 3310 3305 3300 3290 3280 3260 3254 3250 3246 3245 3244 3243 3243 3242 3242 3242 3242 3242 3243 3243 3242 3242 3242 3242 3242 3243 3243 3242 3243 3243 3243 3243 3243 3243 3242 3242 3242 3242 3242 3242 3242 3241 3241 3240 3236 3233 3229 3225 3223 3220 3214 3210 3206 3205 3200 3202 3203 3204 3204 3205 3205 3206 3206 3207 3206 3206 3206 3205 3205 3204 3203 3202 3200 3201 3201 3202 3201 3201 3200 3196 3195 3191 3189 3185 3183 3180 3174 3170 3166 3160 3152 3147 3140 3134 3130 3126 3120 3114 3110 3106 3100 3093 3088 3080 3074 3070 3066 3060 3054 3048 3045 3040 3030 3020 3013 3008 3000 2993 2988 2980 2976 2973 2969 2965 2960 2954 2948 2945 2940 2935 2932 2926 2920 2915 2910 2905 2900 2890 2880 2873 2867 2860 2854 2850 2846 2840 2830 2820 2812 2807 2800 2795 2792 2786 2780 2776 2773 2769 2766 2765 2766 2767 2760 2760 2760 2760 2760 2760 2760 2760 2760 2755 2753 2748 2740 2740 2740 2730 2720 2712 2708 2706 2700 2692 2688 2680 2673 2668 2660 2650 2640 2632 2628 2620 2610 2600 2592 2587 2580 2560 2557 2560 2560 2567 2568 2570 2580 2580 2588 2590 2592 2600 2600
2640 2640 2643 2643 2645 2648 2651 2655 2660 2662 2660 2653 2653 2652 2649 2649 2648 2650 2650 2651 2652 2653 2655 2656 2657 2657 2657 2658 2659 2659 2659 2660 2665 2666 2669 2672 2674 2676 2677 2678 2680 2685 2688 2690 2692 2694 2695 2697 2698 2698 2698 2698 2698 2700 2705 2709 2714 2716 2720 2728 2733 2735 2740 2740 2748 2753 2760 2768 2773 2775 2780 2780 2788 2792 2794 2795 2796 2797 2797 2800 2805 2808 2814 2820 2830 2840 2847 2852 2860 2865 2870 2875 2880 2883 2885 2888 2890 2893 2895 2897 2900 2907 2913 2920 2925 2928 2934 2940 2950 2960 2964 2968 2972 2976 2980 2984 2988 2992 2996 3000 3004 3008 3012 3016 3020 3030 3040 3045 3050 3055 3060 3064 3068 3072 3076 3080 3084 3088 3092 3096 3100 3105 3110 3115 3120 3127 3133 3140 3144 3148 3152 3156 3160 3165 3170 3175 3180 3185 3187 3193 3195 3200 3207 3212 3220 3225 3230 3235 3240 3247 3253 3260 3267 3272 3280 3288 3292 3300 3310 3320 3326 3330 3334 3340 3330 3320 3315 3312 3306 3300 3290 3280 3270 3260 3254 3250 3248 3247 3246 3245 3244 3244 3244 3243 3244 3244 3244 3243 3242 3242 3242 3242 3242 3242 3242 3242 3242 3242 3242 3242 3242 3242 3242 3242 3242 3242 3242 3241 3241 3241 3240 3236 3232 3228 3224 3220 3214 3210 3206 3200 3200 3202 3203 3204 3205 3206 3207 3207 3208 3208 3208 3208 3208 3207 3207 3206 3205 3204 3202 3202 3200 3201 3202 3202 3201 3201 3200 3196 3195 3191 3188 3185 3183 3180 3173 3168 3160 3154 3150 3146 3140 3134 3130 3126 3120 3114 3108 3105 3100 3092 3088 3080 3073 3068 3060 3055 3052 3046 3040 3032 3028 3020 3012 3008 3000 2992 2987 2980 2975 2972 2966 2960 2955 2953 2947 2945 2940 2933 2927 2920 2915 2912 2906 2900 2890 2880 2873 2868 2860 2852 2847 2840 2830 2820 2820 2810 2800 2796 2794 2789 2785 2780 2777 2773 2771 2771 2770 2772 2772 2770 2770 2770 2770 2770 2770 2770 2770 2770 2760 2760 2752 2750 2750 2748 2740 2730 2720 2713 2710 2706 2700 2692 2687 2680 2670 2660 2650 2640 2630 2620 2612 2608 2600 2590 2580 2573 2567 2560 2566 2568 2572 2573 2580 2588 2590 2592 2600 2600 2608 2610
